VERSION 0.7
FIELDS x y z
SIZE 4 4 4
TYPE F F F
COUNT 1 1 1
WIDTH 1149
HEIGHT 1
VIEWPOINT 0.0 0.0 0.0 1.0 0.0 0.0 0.0
POINTS 1149
DATA ascii
476.192536072 602.880869891 365.040104667
476.27404365 602.87942507 365.042948579
476.355546035 602.878429431 365.045800745
476.437042084 602.877981711 365.04866298
476.518519128 602.879177746 365.051555422
476.599996169 602.880373971 365.054447867
476.681473199 602.88157118 365.057340331
476.76294746 602.883007861 365.060237195
476.844386833 602.887461902 365.063189508
476.925826207 602.891915943 365.066141821
477.00720614 602.901510791 365.069188604
477.088585186 602.911182367 365.072236798
477.169919693 602.92470605 365.07535578
477.251249088 602.938671778 365.078482886
477.332495181 602.95984214 365.081742389
477.413721584 602.982715416 365.085033185
477.494860839 603.013125953 365.088462491
477.575966301 603.0464591 365.091945505
477.65699112 603.086766837 365.095556688
477.737969054 603.131129569 365.099242388
477.818873386 603.181857914 365.103045067
477.899716052 603.23791961 365.106945755
477.980486124 603.300259783 365.11096182
478.061169551 603.370093619 365.115115593
478.141797053 603.444764345 365.119358252
478.222328361 603.527754521 365.123753795
478.302712806 603.623446573 365.128382755
478.382718497 603.751896097 365.133613688
478.461980122 603.944697913 365.140027198
478.538093777 604.409759431 365.151443926
470.963421774 604.730622704 364.807483032
471.04717552 604.534912753 364.806757005
471.130929265 604.339202803 364.806030978
471.216260669 604.007045259 364.802797503
471.30161562 603.672851185 364.799526604
471.383951358 603.599780994 364.801054283
471.465940628 603.55667584 364.803132618
471.54783916 603.521418467 364.805355169
471.629716244 603.488016024 364.807611807
471.71157763 603.455971336 364.809893396
471.793432928 603.424453124 364.81218466
471.875281751 603.393494913 364.814486215
471.95712681 603.362862284 364.816793753
472.038986232 603.330987403 364.819078463
472.120857688 603.298071717 364.821344046
472.202750905 603.26327396 364.823575043
472.284670096 603.226229858 364.82576476
472.366580329 603.189960468 364.827968714
472.448475155 603.15502358 364.830197154
472.530337462 603.122899216 364.832477279
472.612115902 603.098028203 364.834890696
472.69387164 603.075120689 364.837340196
472.775531328 603.060520289 364.839942352
472.857190658 603.045950832 364.842545077
472.938846871 603.031651017 364.845152758
473.02050307 603.017352323 364.847760458
473.102158402 603.003128686 364.850369538
473.183813734 602.988905049 364.852978619
473.265496627 602.97229771 364.855543894
473.347181707 602.955501189 364.858105693
473.428874763 602.938014826 364.860654816
473.510569359 602.920395336 364.863201491
473.59226634 602.9025696 364.865744377
473.673964115 602.884675116 364.868285999
473.755652017 602.867634568 364.870843314
473.837334872 602.851030476 364.873408649
473.918994403 602.836443656 364.876011055
474.00063659 602.823356859 364.878641027
474.08227014 602.811017083 364.881284726
474.163894529 602.7994696 364.883942985
474.245506285 602.78901468 364.886621321
474.327098859 602.780218834 364.889330146
474.408699532 602.770722504 364.892026098
474.490318331 602.759658423 364.89469324
474.571933781 602.748884072 364.897365706
474.653537394 602.739133432 364.900056985
474.735131963 602.730165034 364.902762639
474.816667239 602.726324673 364.905562529
474.898200033 602.722698995 364.908366363
474.979679045 602.723724809 364.911255677
475.061158057 602.724750622 364.914144991
475.14261073 602.728054343 364.917076165
475.224062188 602.731463198 364.920009271
475.305475663 602.738157139 364.923002745
475.386883344 602.745352195 364.926005429
475.468290242 602.752614903 364.929009356
475.549696919 602.759896757 364.932013634
475.631122653 602.765530434 364.934987625
475.712556902 602.770427692 364.937948083
475.793988088 602.775589829 364.940913408
475.875417257 602.780926399 364.943881939
475.956861552 602.784954806 364.94682643
476.038320107 602.787749802 364.949748255
476.119795417 602.789095774 364.952643452
476.201293259 602.788493057 364.955502839
476.282790626 602.787931314 364.958362979
476.364287067 602.787449736 364.961224592
476.445777614 602.787477866 364.964095571
476.527250481 602.78903512 364.966994651
476.608721866 602.790720572 364.969896087
476.69018557 602.793070317 364.97280973
476.771646129 602.795692057 364.975728371
476.853067062 602.801740932 364.978709992
476.934487996 602.807789807 364.981691612
477.015867591 602.817413868 364.984738933
477.09724657 602.82709129 364.987787234
477.178572259 602.841377585 364.990920231
477.259891833 602.856192767 364.994062946
477.341133614 602.877735975 364.997329301
477.422357009 602.900869444 365.000624879
477.503485889 602.932177246 365.004070673
477.58457812 602.966654687 365.007574715
477.665602252 603.00702192 365.011186992
477.74658679 603.050813451 365.014862195
477.827507691 603.100108783 365.01863854
477.908375275 603.154015407 365.022499625
477.989164555 603.214694327 365.026485162
478.069860376 603.28345631 365.030619238
478.15049146 603.357817146 365.034856202
478.231011198 603.441808011 365.039270134
478.311506623 603.527901666 365.043722708
478.391939346 603.619418306 365.048274939
478.471796678 603.760698932 365.053741664
478.549219668 604.1125195 365.063077404
478.626832114 604.447954538 365.072112033
478.706095531 604.640601381 365.078522695
470.971300031 604.714262262 364.724278129
471.057879857 604.27413192 364.719060478
471.144459683 603.834001577 364.713842827
471.227373935 603.71089723 364.714451047
471.310233477 603.592524615 364.715146219
471.392344868 603.538857615 364.717030463
471.474370405 603.49261585 364.719051158
471.556281135 603.456303439 364.721254321
471.63816473 603.422337966 364.723500612
471.720028264 603.39010739 364.725778786
471.801884021 603.358549527 364.728069321
471.883740908 603.326893898 364.73035806
471.965598452 603.295181428 364.732645754
472.047465151 603.262677219 364.734918899
472.129339519 603.229509661 364.737179854
472.211242471 603.193869968 364.739395379
472.29317954 603.155279664 364.741556681
472.375105618 603.117639846 364.743735451
472.457012794 603.081634867 364.745944263
472.538883584 603.048776748 364.748210904
472.620660539 603.024034217 364.750626683
472.702418317 603.000950326 364.753072941
472.784094957 602.984883757 364.755648154
472.865771483 602.968827117 364.75822355
472.947447008 602.952857001 364.760800536
473.029122602 602.936880892 364.763377411
473.110802839 602.920503262 364.765946908
473.192483076 602.904125633 364.768516405
473.274197226 602.884814985 364.771032003
473.355914067 602.865271559 364.773543324
473.437626168 602.846138091 364.776062178
473.519337354 602.827083737 364.778582485
473.601049836 602.807917345 364.781100734
473.682762749 602.788713607 364.783618297
473.764465146 602.770419436 364.786152574
473.846162167 602.752590154 364.788695395
473.927832458 602.737072776 364.7912807
474.009482871 602.723274505 364.793897597
474.091118735 602.710734553 364.796537618
474.172739169 602.699529184 364.799202163
474.254344417 602.689637115 364.801890843
474.335926607 602.681739318 364.804616171
474.417521552 602.672738346 364.807321226
474.499145045 602.661268362 364.809980909
474.580758514 602.650665317 364.812656523
474.662336566 602.643125455 364.815388429
474.743907244 602.63622329 364.818132053
474.825429586 602.63350158 364.8209525
474.906950088 602.630938958 364.82377587
474.988430736 602.631823251 364.826662583
475.069911384 602.632707544 364.829549296
475.151375445 602.63502644 364.832462372
475.23283874 602.637411548 364.835376665
475.314250422 602.644260514 364.838372989
475.395654231 602.651790407 364.841381825
475.477066607 602.658579423 364.844377047
475.558481407 602.665158758 364.847368416
475.639908694 602.670658052 364.850339937
475.721341562 602.675674775 364.85330259
475.802775881 602.680565958 364.856262936
475.884211155 602.685374467 364.859221763
475.965648487 602.690005106 364.862177321
476.047087757 602.69446804 364.865129798
476.128545736 602.697312933 364.86805254
476.210028874 602.697981838 364.870935295
476.291514155 602.698465507 364.873814646
476.373003625 602.698586756 364.876687336
476.454488804 602.699079198 364.879566849
476.535961107 602.700685221 364.882466824
476.617429318 602.70264516 364.885373304
476.698876325 602.706439027 364.888313485
476.780319923 602.710527697 364.891259084
476.861720572 602.718330878 364.894272943
476.943121221 602.72613406 364.897286802
477.024502706 602.735594726 364.90033112
477.105883905 602.745080131 364.903375892
477.1871988 602.76029992 364.906526043
477.268506087 602.776177753 364.909688287
477.349742988 602.798143153 364.9129624
477.430963251 602.821547434 364.916262954
477.512081205 602.853800176 364.919726114
477.593159488 602.889483955 364.923252324
477.674182715 602.929929415 364.926866038
477.755173933 602.973143295 364.930530626
477.836111836 603.020968194 364.934279949
477.91700507 603.07265638 364.938100267
477.997815278 603.13152523 364.942052541
478.078526392 603.19896455 364.946162311
478.159165473 603.272633796 364.950386566
478.239680657 603.357018515 364.954807736
478.32016207 603.444324076 364.959282581
478.400556387 603.539162337 364.963895851
478.480825816 603.644801764 364.968707611
478.560566877 603.796138431 364.974359132
478.639975012 603.976268954 364.980539787
478.71648194 604.407317364 364.991331468
470.815945771 604.719590354 364.635730863
470.899351465 604.553982458 364.63555801
470.982921987 604.374118959 364.635123188
471.068569351 604.014634862 364.631387543
471.154216715 603.655150765 364.627651899
471.236449669 603.590970074 364.629342936
471.318631662 603.531196896 364.631114969
471.400687968 603.482294016 364.633086762
471.482729851 603.434638546 364.635081477
471.564641062 603.398284571 364.637283876
471.646521387 603.364601858 364.639535364
471.728380171 603.332782158 364.641821088
471.810230603 603.301684851 364.644120087
471.89208345 603.270378606 364.646415246
471.973937702 603.238950885 364.648708173
472.055801256 603.206718582 364.650986315
472.137672605 603.173812169 364.653252068
472.219575824 603.138149433 364.65546717
472.301517081 603.09919689 364.657621816
472.383449491 603.061009437 364.659790522
472.465366686 603.02413794 364.66198341
472.547244797 602.990646647 364.664238416
472.629022115 602.965872723 364.666653617
472.710785078 602.942340351 364.669091634
472.792487307 602.924060701 364.671626178
472.874189832 602.90575546 364.674160252
472.955894935 602.887227216 364.676690228
473.037600256 602.868680129 364.679219858
473.119320174 602.848870568 364.681726288
473.201040092 602.829061007 364.684232717
473.282782527 602.807304047 364.68670336
473.364526749 602.785392533 364.689171163
473.446253968 602.764951563 364.69166599
473.527977905 602.744794383 364.694166031
473.609698731 602.724906392 364.696671019
473.691418518 602.705108131 364.699177657
473.773122167 602.686705654 364.701709944
473.854817567 602.669016577 364.704255341
473.936491051 602.653223061 364.706835572
474.018148236 602.638839066 364.709441705
474.099782976 602.626396385 364.712083513
474.181393909 602.616012673 364.714763158
474.262994148 602.606553881 364.7174598
474.344578147 602.598499597 364.720182252
474.426170189 602.589749681 364.722891921
474.507780233 602.579442873 364.725572979
474.589379147 602.570098708 364.728271727
474.670938732 602.564155881 364.731032981
474.752492985 602.558674273 364.73380271
474.834012279 602.556216208 364.736628002
474.915530304 602.5538679 364.73945531
474.997020832 602.553897641 364.74232632
475.078511361 602.553927382 364.745197329
475.159992689 602.554752919 364.748082962
475.241473591 602.555615184 364.75096927
475.322906535 602.560625345 364.753931803
475.404332162 602.566268235 364.756905963
475.485758994 602.571806901 364.759878207
475.567186168 602.577316068 364.76284991
475.648615534 602.582635572 364.765818127
475.730045881 602.587870334 364.768784787
475.811478983 602.592866705 364.771747066
475.892913901 602.597706089 364.774706461
475.974342748 602.603070526 364.777675503
476.055765871 602.608930014 364.780653644
476.137202901 602.613586725 364.783609681
476.218658633 602.616625909 364.786535994
476.30012314 602.618906208 364.789448361
476.381604815 602.61970173 364.792333442
476.463082246 602.62086425 364.795225268
476.544546947 602.623127764 364.798137327
476.626003437 602.626101382 364.801062434
476.707417382 602.632754629 364.804055161
476.788829029 602.639606686 364.807051542
476.870211712 602.648963734 364.810093955
476.951594395 602.658320782 364.813136369
477.032964788 602.668740711 364.816198315
477.114334998 602.679176504 364.819260552
477.195646003 602.694732784 364.822416887
477.276950214 602.710876662 364.82558402
477.358187667 602.732794261 364.828857254
477.439409341 602.756076558 364.832155567
477.52053512 602.787652509 364.835606289
477.601623716 602.822444366 364.839116109
477.682658644 602.861877879 364.842711227
477.763662368 602.904010029 364.846355936
477.84461813 602.950290354 364.850076876
477.925533707 603.000046175 364.853861683
478.006362696 603.057290818 364.857784109
478.087088336 603.123473731 364.861870791
478.167734801 603.196504364 364.866083311
478.248245083 603.281313075 364.870512272
478.328716953 603.369443958 364.875002283
478.40908976 603.466142545 364.87964974
478.48946142 603.562940305 364.88429902
478.569828229 603.660157638 364.88895601
478.649691601 603.800915882 364.894413135
478.725167884 604.321102076 364.906842868
470.824050319 604.683658568 364.552166305
470.910139486 604.285964007 364.547728481
470.996018735 603.906424832 364.543624292
471.079252998 603.755643534 364.543723902
471.162487261 603.604862237 364.543823512
471.244722739 603.540463261 364.545510538
471.326943309 603.477353573 364.547221257
471.40901121 603.427447905 364.549174622
471.491061592 603.379057452 364.551155831
471.572968667 603.34306116 364.553364803
471.65484187 603.309994397 364.55562761
471.736693185 603.278820663 364.557925204
471.818536013 603.248380961 364.560236288
471.900380053 603.217836476 364.562545446
471.982224796 603.187231071 364.564853484
472.064081102 603.155625706 364.567143146
472.145947095 603.123182537 364.569417413
472.22784685 603.087819349 364.571638019
472.309786902 603.048970978 364.57379458
472.391721897 603.01056002 364.575959178
472.473648193 602.972901413 364.578137603
472.555533167 602.938816569 364.580381701
472.637311576 602.91394827 364.582795168
472.719080964 602.889860226 364.585222973
472.800812183 602.869073255 364.587711441
472.882544176 602.848219461 364.590198681
472.964282901 602.82678334 364.59267522
473.046022018 602.805313267 364.595151135
473.127787439 602.781568343 364.597585246
473.209552859 602.757823419 364.600019357
473.291322409 602.733721389 364.602446906
473.373092286 602.709591017 364.604873933
473.454833075 602.68797633 364.607347191
473.536568252 602.666847126 364.60982937
473.618294601 602.646481407 364.612325579
473.700018007 602.626370183 364.614826465
473.781717691 602.608310585 364.617365053
473.863405251 602.591299596 364.619922911
473.945078947 602.575487746 364.622502805
474.026742332 602.560567565 364.625099085
474.108374592 602.548339328 364.627744834
474.18997384 602.538966186 364.63044305
474.27156966 602.529889626 364.633146716
474.353160272 602.521263432 364.635858658
474.434750524 602.512668332 364.638571172
474.516339972 602.504142821 364.641284965
474.597919376 602.496485974 364.64401472
474.679463291 602.491898405 364.646800879
474.76100406 602.487582998 364.649592039
474.8425242 602.485051757 364.652415986
474.924043613 602.482583408 364.655241088
475.00554727 602.481477706 364.658091232
475.087050927 602.480372004 364.660941376
475.168551838 602.479503851 364.663795884
475.250052621 602.478646661 364.666650595
475.331515907 602.481032568 364.669564902
475.412973473 602.483913185 364.672488301
475.4944183 602.487895542 364.675431946
475.575859522 602.492189712 364.678381321
475.657291174 602.497311539 364.681345906
475.73871855 602.50280317 364.684317286
475.820148723 602.508052909 364.687284221
475.901580738 602.513143354 364.690248229
475.983000501 602.519293418 364.693231709
476.064408713 602.526442551 364.696233549
476.145823369 602.533034344 364.699225147
476.227246691 602.53887661 364.70220297
476.308687003 602.543249472 364.705153791
476.390160556 602.544747414 364.708051781
476.471629302 602.546661071 364.710957411
476.553083628 602.549821875 364.713885958
476.634525031 602.554100368 364.716835045
476.715899469 602.564170522 364.719890563
476.797273259 602.574296692 364.722947111
476.878638888 602.585128645 364.726016628
476.960004517 602.595960598 364.729086146
477.041358706 602.607782049 364.732173847
477.122712724 602.619618268 364.735261819
477.204022557 602.635275858 364.738420016
477.285327321 602.651371965 364.741586271
477.366567467 602.673056614 364.744855224
477.44779234 602.69606219 364.748148452
477.528933332 602.726322485 364.751574997
477.610041798 602.759395833 364.755053236
477.691093391 602.797387937 364.758621866
477.77211192 602.838239782 364.762243048
477.853085878 602.882946323 364.765935066
477.934022495 602.930882475 364.769686434
478.014869416 602.986576129 364.773580358
478.095609282 603.051528737 364.777644431
478.17626289 603.123941628 364.781845599
478.256768132 603.209186204 364.78628257
478.33723222 603.297990116 364.790784949
478.417590173 603.39597337 364.795456014
478.497941996 603.494486853 364.800136823
478.57826788 603.59524362 364.804858856
478.658058433 603.742299861 364.810431717
478.733183949 604.292822953 364.82341894
470.831902492 604.669553945 364.469002856
470.919115004 604.174704265 364.462779648
471.005970172 603.710760377 364.457124385
471.088322799 603.636229463 364.45862522
471.170675426 603.561698549 364.460126056
471.252908684 603.497491579 364.46181661
471.335140161 603.433438697 364.463509997
471.417211392 603.383244984 364.465458068
471.499264234 603.334641667 364.467435365
471.581174034 603.298409776 364.469640008
471.663050023 603.26510204 364.471898386
471.744896793 603.234321394 364.474203205
471.826732233 603.204520641 364.47652603
471.908566354 603.17483401 364.478850952
471.990399708 603.145213729 364.481177094
472.072247275 603.114364129 364.483480645
472.154106751 603.082484558 364.485765268
472.235999186 603.047754502 364.487997509
472.317930958 603.009622254 364.49016723
472.39985888 602.971822943 364.492343068
472.481780182 602.934596282 364.49452943
472.563665837 602.900452571 364.496772446
472.645459562 602.874259628 364.499161571
472.727247634 602.848555628 364.501559681
472.809011788 602.824920233 364.503995804
472.890777496 602.801150463 364.506429459
472.972556743 602.776209707 364.508841594
473.054336326 602.751239907 364.511253196
473.136138408 602.724324165 364.513629038
473.217940491 602.697408423 364.51600488
473.299731177 602.67147836 364.518398835
473.381520958 602.645626525 364.520794228
473.463267874 602.623482036 364.52325775
473.545006517 602.602053 364.525734419
473.626727645 602.582138837 364.528238926
473.708442934 602.562729631 364.530752713
473.790136549 602.545194974 364.533300948
473.871819086 602.52861842 364.535866789
473.953491306 602.512934096 364.538449027
474.035155856 602.497913224 364.541043457
474.116785236 602.485934042 364.543693782
474.198377316 602.477180894 364.546403391
474.279962991 602.468981664 364.54912318
474.361538941 602.461623568 364.551858425
474.443114824 602.454271199 364.554593776
474.52469056 602.446931648 364.557329363
474.606260556 602.440088424 364.56007407
474.687810276 602.434998884 364.562851004
474.769357268 602.430145224 364.565632273
474.850886382 602.426837888 364.568441958
474.932415308 602.423546691 364.571251939
475.013940192 602.420605162 364.574068347
475.095465076 602.417663633 364.576884754
475.176988038 602.414888266 364.579704215
475.258510912 602.412120569 364.582523816
475.33999523 602.41268741 364.585404696
475.421473668 602.41376291 364.588294922
475.502929498 602.416793663 364.59122108
475.584378929 602.42037779 364.594157407
475.665815656 602.425060674 364.597113925
475.747246707 602.430234491 364.600079465
475.828676563 602.435511718 364.603046905
475.910105631 602.440857044 364.606015597
475.991519149 602.44754717 364.609009002
476.072918008 602.45550525 364.612025707
476.154318852 602.463291526 364.615039255
476.235722369 602.470846753 364.618048558
476.317141467 602.477054269 364.621033094
476.398591054 602.480624958 364.623969173
476.480034019 602.484768436 364.626915779
476.561457114 602.49063028 364.629893963
476.642868542 602.497501224 364.63289069
476.724219511 602.509601136 364.635983509
476.80557067 602.521684575 364.639076024
476.88692423 602.53356046 364.642164726
476.968277789 602.545436345 364.645253427
477.049618041 602.558463068 364.648363277
477.130958095 602.571506968 364.651473443
477.212265558 602.587369599 364.654635407
477.293569281 602.603555691 364.657803315
477.374822596 602.62410145 364.66105134
477.456063996 602.645677676 364.664318301
477.537230506 602.673730945 364.667704288
477.618367977 602.70429572 364.671136429
477.699443339 602.740232149 364.674667282
477.780482591 602.779291633 364.678255526
477.861470668 602.822777154 364.681925106
477.942415867 602.869970978 364.685662833
478.023269301 602.925101392 364.689546407
478.104013208 602.989704512 364.693604057
478.184665336 603.062245347 364.697807576
478.265159604 603.14843905 364.702261989
478.345613637 603.238112601 364.706780349
478.425963906 603.336760498 364.711463628
478.506304838 603.436215841 364.716161745
478.586606272 603.539087307 364.720922639
478.666524816 603.675073882 364.726292077
478.743106752 604.099634979 364.736964542
478.81973476 604.520211444 364.747563784
478.89944958 604.673817602 364.753257011
478.9791644 604.827423759 364.758950237
470.839606723 604.668244554 364.386074541
470.92702802 604.155337561 364.3795195
471.014077807 603.674561593 364.37355492
471.096446554 603.598636543 364.375030136
471.1788153 603.522711493 364.376505352
471.261043557 603.458937042 364.378203855
471.343269717 603.395343944 364.37990569
471.425339435 603.345281174 364.381856168
471.507391199 603.296771064 364.383835178
471.589307744 603.259955788 364.3860291
471.671192328 603.225904744 364.388273819
471.753036267 603.195368948 364.390583137
471.834864446 603.166196207 364.392917503
471.916687996 603.13742376 364.395259225
471.998508856 603.108884043 364.397605223
472.080346812 603.078865727 364.39992405
472.162199091 603.047608584 364.402220112
472.244081944 603.013707208 364.404467582
472.326001289 602.976649814 364.406657054
472.407916478 602.93995172 364.408853129
472.489824523 602.903871623 364.411060561
472.571707234 602.869982482 364.413308256
472.653524614 602.841743702 364.415659785
472.735338557 602.813802202 364.418016777
472.817137958 602.787118425 364.420396881
472.898939871 602.760217294 364.422772992
472.980763685 602.731422078 364.425114295
473.062587642 602.702614463 364.427455371
473.144421205 602.672976084 364.42978118
473.226254768 602.643337705 364.432106989
473.308063086 602.615882699 364.434472921
473.3898694 602.588600977 364.436842038
473.471618077 602.566304154 364.43930276
473.553355631 602.544969329 364.44178116
473.635065239 602.526051474 364.444303976
473.716765531 602.507939277 364.446841598
473.798451843 602.491036287 364.449401441
473.880131008 602.474751338 364.451972641
473.961800766 602.459280043 364.454558793
474.043463528 602.444413772 364.457156064
474.125089794 602.432703932 364.459811339
474.206677352 602.424341822 364.462528134
474.288249528 602.41731015 364.465269378
474.369798344 602.412298776 364.468047749
474.451352484 602.406826882 364.470817657
474.532918542 602.400324301 364.473568624
474.614485053 602.393782533 364.476318871
474.696053165 602.387102302 364.479066573
474.777617934 602.380711228 364.481819589
474.859160785 602.37621574 364.48460744
474.940703989 602.371689703 364.487394729
475.022254847 602.366501777 364.490169855
475.103805704 602.361313851 364.492944982
475.185352166 602.356506103 364.495727094
475.266898424 602.351715902 364.498509529
475.348398318 602.350935684 364.501365654
475.429891139 602.350767157 364.504233019
475.511353873 602.353200789 364.507148204
475.592808092 602.356370881 364.510076922
475.67425153 602.36047339 364.513022775
475.755690151 602.364992511 364.515976284
475.837121219 602.370164814 364.518941796
475.918547314 602.375767259 364.521915213
475.999956253 602.382853495 364.524915897
476.081349016 602.391338735 364.52794229
476.162741069 602.399885349 364.53096981
476.244132168 602.408514502 364.533998848
476.325531802 602.416405483 364.53701432
476.406948135 602.422852214 364.540003252
476.488355295 602.430092327 364.543006763
476.569734935 602.439712583 364.546054014
476.651107661 602.449930762 364.549112252
476.732444563 602.463247274 364.552227428
476.813782017 602.476516042 364.555341726
476.895126427 602.48918322 364.558444968
476.976470837 602.501850397 364.561548211
477.057798484 602.51596735 364.564678096
477.139125881 602.53010594 364.567808378
477.22043027 602.546234421 364.570975228
477.301732018 602.56259125 364.574146274
477.383004642 602.581467053 364.57736361
477.464270381 602.600938249 364.580591888
477.545468451 602.626261964 364.583927715
477.626640282 602.653855024 364.587305245
477.707743576 602.687375693 364.590791705
477.788807023 602.724342645 364.594341496
477.869806826 602.766813939 364.597992438
477.950753307 602.813896978 364.601728128
478.031606558 602.869043179 364.605611992
478.112348536 602.933813152 364.609672709
478.19299413 603.006919057 364.613886612
478.273473946 603.094362765 364.618363995
478.353916591 603.185021209 364.622900455
478.434263377 603.283970287 364.627589269
478.514598664 603.383913846 364.632296357
478.594885304 603.488064821 364.637080764
478.675049557 603.602800686 364.642059686
478.754147299 603.809776298 364.648733663
478.833212926 604.019529432 364.655458682
478.910126865 604.415376502 364.665603481
478.987040804 604.811223573 364.675748279
470.683716179 604.719954422 364.298379616
470.766641502 604.59589258 364.29897024
470.850092102 604.426400876 364.298726016
470.936264593 604.021499889 364.294155762
471.022157118 603.64081248 364.290030472
471.104522063 603.565216164 364.291511729
471.186887009 603.489619848 364.292992986
471.269109763 603.426321355 364.294700235
471.351330394 603.363206412 364.296410858
471.433405369 603.312688951 364.29835298
471.515463629 603.263617104 364.300321667
471.597381246 603.226709089 364.302513885
471.67926562 603.192676162 364.304758937
471.761101063 603.162875162 364.307081757
471.842917533 603.134715113 364.309434733
471.924730716 603.106839305 364.311792932
472.006541989 603.079128752 364.314154168
472.088373086 603.049703605 364.316483896
472.170220793 603.018841905 364.318787224
472.252097302 602.985489264 364.321044778
472.334008186 602.949163563 364.323247696
472.415917048 602.913012707 364.325453828
472.497822433 602.877162583 364.327665486
472.57970837 602.842994561 364.329908056
472.661544148 602.813164593 364.332230344
472.743377712 602.783526084 364.334556151
472.82520191 602.754697591 364.336896843
472.907029427 602.725582101 364.339232261
472.988885862 602.693965629 364.341521719
473.070742369 602.662342863 364.343811062
473.152603751 602.630298406 364.346092655
473.234465134 602.59825395 364.348374249
473.316299164 602.568575144 364.350699315
473.398131024 602.539084088 364.353027831
473.479872319 602.517425644 364.355500284
473.561596138 602.497278757 364.358000515
473.643286618 602.480015205 364.360553732
473.724965986 602.463712765 364.363124611
473.80663566 602.448248641 364.365710895
473.888300381 602.433212991 364.368305053
473.969968119 602.417916352 364.370894415
474.051638101 602.402425646 364.37348021
474.133263563 602.39078531 364.376136763
474.214841808 602.3832287 364.37886836
474.296399607 602.377440479 364.381632455
474.377926356 602.374337591 364.384445897
474.459462996 602.370379266 364.387243619
474.541021773 602.364506392 364.390006158
474.622584563 602.358286484 364.39276232
474.70416153 602.350840383 364.395495948
474.785738489 602.343394987 364.398229589
474.867315395 602.335954219 364.400963316
474.948892133 602.328527924 364.403697308
475.030465245 602.321415199 364.406437063
475.112038358 602.314302473 364.409176818
475.193605844 602.307676383 364.411925515
475.27517307 602.301072753 364.414674625
475.356688114 602.298982284 364.417506672
475.438195197 602.297580264 364.42035137
475.51966962 602.299002933 364.423247977
475.6011348 602.301225043 364.426159274
475.682589598 602.304345 364.429087071
475.764039758 602.307866122 364.43202224
475.845475231 602.312657517 364.434980753
475.926901031 602.318285434 364.437954638
476.008308641 602.325486631 364.440957434
476.089699099 602.334171208 364.44398749
476.171086847 602.343090197 364.447021854
476.25247095 602.352324431 364.45006201
476.333854333 602.361620946 364.453103312
476.415236307 602.371039314 364.456146852
476.496607564 602.381384548 364.459207425
476.57794667 602.394510377 364.462319097
476.659282449 602.407924043 364.465436057
476.740600982 602.422829229 364.468580427
476.821920367 602.437660738 364.471723443
476.903250486 602.451563937 364.474849399
476.984580604 602.465467136 364.477975356
477.06589689 602.480566724 364.481123298
477.147212969 602.495684169 364.484271569
477.228518439 602.511719128 364.4874367
477.309822692 602.527859375 364.490603766
477.391111047 602.545374618 364.4937961
477.472395644 602.563214861 364.496994406
477.553621316 602.586151361 364.500286364
477.634824139 602.611063962 364.503614637
477.715954816 602.642216402 364.507057576
477.797043546 602.676996656 364.510567183
477.878052733 602.718656367 364.514203211
477.958995276 602.766079948 364.517945159
478.039844215 602.821599118 364.521835877
478.120581433 602.886780768 364.525904159
478.201221552 602.960360249 364.530126765
478.28169466 603.048384 364.534614808
478.362131233 603.13956768 364.539160919
478.44247358 603.23890065 364.543856787
478.522803177 603.339336299 364.548572919
478.603078834 603.444437134 364.553374781
478.683350548 603.549879015 364.55818291
478.763587898 603.658292873 364.563045655
478.843756002 603.772695713 364.568018456
478.919284564 604.288360406 364.580365099
478.994813126 604.804025099 364.592711743
470.692051211 604.664088652 364.214448738
470.777634836 604.31011715 364.210814397
470.862913645 603.982508395 364.207664514
470.946612953 603.791506603 364.207025007
471.030212636 603.609121091 364.206543838
471.112557048 603.535300721 364.208057731
471.194901459 603.46148035 364.209571623
471.277118288 603.398694302 364.21128829
471.359333213 603.336072945 364.213007983
471.441419132 603.284608863 364.214932709
471.523490248 603.234425124 364.216880964
471.605404172 603.197836515 364.219079051
471.687280942 603.1644613 364.221336189
471.76910313 603.135806651 364.223680076
471.850904155 603.108982425 364.2260576
471.932707141 603.081988516 364.228432005
472.014511268 603.054895953 364.230804598
472.09633782 603.025863958 364.23314155
472.178183159 602.995207035 364.235448642
472.260056042 602.962167973 364.237711958
472.341961799 602.926285713 364.239923025
472.423869714 602.890216751 364.242130662
472.505781343 602.853826662 364.244332397
472.587675685 602.81893166 364.246561607
472.669525445 602.787892411 364.248861673
472.751373381 602.757010905 364.251164638
472.833213601 602.726796777 364.253479866
472.915057815 602.696237208 364.255788747
472.996936835 602.662667371 364.258042309
473.078815959 602.629088493 364.260295705
473.160702087 602.594903868 364.26253797
473.242588215 602.560719243 364.264780234
473.324454745 602.528229596 364.267053646
473.40631972 602.49587447 364.269329531
473.488045955 602.475518606 364.271825921
473.569745415 602.457478389 364.274364865
473.651410377 602.442421855 364.27695864
473.73306384 602.428359881 364.279570691
473.814709038 602.415012669 364.282195876
473.896350012 602.402030781 364.284827776
473.978016103 602.386876567 364.287419755
474.059700872 602.370107034 364.28998205
474.141327472 602.358368338 364.292636795
474.222892378 602.351965377 364.295389593
474.304435061 602.347484356 364.298177709
474.385944 602.345921835 364.301019458
474.467466704 602.343168878 364.303839331
474.549020213 602.337751611 364.306610242
474.630579083 602.331870701 364.309372634
474.712156894 602.32435158 364.31210492
474.793741352 602.316257662 364.314826644
474.875369378 602.304395626 364.317479122
474.956995825 602.292670119 364.320134109
475.038588069 602.283902737 364.322843457
475.120180314 602.275135354 364.325552805
475.201766745 602.266870715 364.328271391
475.283352909 602.258629279 364.330990404
475.364882744 602.25525948 364.333798941
475.446403987 602.252632811 364.336621134
475.527894119 602.252696893 364.339492775
475.609375445 602.253522506 364.342378409
475.690845511 602.255322081 364.345281942
475.772310544 602.257556829 364.348193472
475.853753101 602.261735492 364.351140724
475.935180857 602.267194294 364.354111501
476.016589868 602.274274287 364.357112071
476.097981206 602.282882831 364.360140729
476.179368416 602.291848306 364.363175947
476.260750076 602.301293792 364.366219986
476.342119907 602.311762378 364.369282826
476.423466593 602.324232683 364.372382451
476.504801865 602.337690166 364.375500217
476.586102895 602.354109185 364.378672406
476.6674032 602.370590869 364.381845746
476.748699751 602.387397267 364.385025054
476.829997401 602.404108548 364.388202614
476.911308909 602.419621339 364.391358149
476.992620417 602.43513413 364.394513685
477.073926386 602.451125977 364.397678024
477.155232272 602.467124974 364.400842494
477.236542314 602.482764537 364.404000359
477.317852833 602.498362853 364.407157466
477.399153914 602.514777432 364.410329574
477.480452764 602.531384946 364.413505226
477.561702713 602.552221796 364.4167586
477.6429337 602.574698591 364.420042111
477.724091297 602.603522731 364.423442264
477.805206226 602.636037187 364.426910233
477.886222828 602.677055537 364.430534475
477.967157051 602.72519877 364.434289648
478.047998208 602.781390947 364.438192733
478.128728288 602.847189926 364.44227236
478.20936382 602.921166127 364.446502256
478.289836729 603.009207152 364.450990616
478.370271692 603.100529956 364.455539284
478.450608797 603.200316293 364.460243484
478.530932668 603.30124729 364.464968718
478.611200544 603.407021077 364.469782947
478.691463589 603.513212625 364.474604853
478.771684542 603.623044662 364.479493658
478.851833602 603.739094562 364.484496727
478.927165811 604.271741313 364.497155443
479.00249802 604.804388063 364.50981416
470.700103876 604.632644097 364.13096664
470.787216334 604.146447793 364.124902452
470.873558173 603.726900382 364.120063046
470.9559068 603.652715418 364.121570239
471.038253848 603.578667061 364.123079942
471.120580994 603.506339966 364.124621276
471.20290814 603.43401287 364.126162611
471.285125741 603.371160007 364.127878049
471.367341707 603.308448551 364.129596087
471.449431736 603.256629062 364.131514281
471.531507313 603.206059472 364.133455445
471.613412899 603.17019199 364.135666784
471.695278306 603.137799552 364.137941983
471.777089238 603.110118416 364.14030376
471.858879048 603.08426411 364.142699107
471.940670685 603.058251812 364.145091552
472.022463383 603.032147657 364.147482308
472.104284865 603.00355412 364.149827317
472.186130463 602.972874883 364.152133999
472.268004007 602.939778577 364.154396263
472.349910908 602.903797381 364.156605513
472.43182359 602.867316178 364.158805574
472.513746216 602.829974965 364.16098983
472.595652744 602.794025995 364.163199672
472.677517757 602.761667549 364.165475495
472.759380108 602.72953943 364.167755551
472.84123119 602.698385776 364.170053515
472.923086292 602.666884524 364.172345091
473.004976418 602.632354205 364.174581002
473.086866826 602.597799391 364.176816464
473.16877621 602.561603446 364.179021767
473.250685594 602.5254075 364.18122707
473.332567913 602.491552269 364.183475387
473.414448085 602.457882809 364.185727119
473.496163201 602.438488568 364.188241181
473.577846464 602.421849195 364.190805868
473.659487238 602.408884644 364.193438086
473.741113849 602.397145033 364.196092814
473.822738432 602.385580718 364.198750763
473.90436198 602.374105997 364.201410359
473.986020688 602.359590334 364.204014073
474.067705541 602.342813457 364.206576233
474.149325282 602.331667933 364.209241878
474.230875966 602.326495055 364.212017281
474.31240682 602.323037121 364.214824198
474.393907564 602.322183362 364.217678972
474.475422478 602.320104125 364.220511225
474.556969104 602.315282152 364.223293076
474.63852307 602.309825383 364.226063262
474.720102969 602.302125674 364.22879223
474.801693451 602.29351071 364.231504378
474.883353308 602.278895745 364.234106267
474.965011375 602.264435541 364.236711
475.046630671 602.25332849 364.239377352
475.128249968 602.242221438 364.242043705
475.209859684 602.231942987 364.244725284
475.291468957 602.221702779 364.247407566
475.373018834 602.216599647 364.250184251
475.454559651 602.212280136 364.252975335
475.536068063 602.210763215 364.255817922
475.617567303 602.21003948 364.258675085
475.699050356 602.210715774 364.261557975
475.780526177 602.212017611 364.264452361
475.861975883 602.215577932 364.267388251
475.943408394 602.220625546 364.270351472
476.024820916 602.227401854 364.27334646
476.106214593 602.235808073 364.276371401
476.187596244 602.245254307 364.279415453
476.268961724 602.256099184 364.282485208
476.350309848 602.268445136 364.285582548
476.431624015 602.283727976 364.288733858
476.512927563 602.299929181 364.291902044
476.594199256 602.318885482 364.29512086
476.675471632 602.337782659 364.298338589
476.756747551 602.356373465 364.301550688
476.838024519 602.374873461 364.304761118
476.919314717 602.392229256 364.307950522
477.000604916 602.409585052 364.311139925
477.081900414 602.426482493 364.314320906
477.163195991 602.443373093 364.317501761
477.244510246 602.458648269 364.32065293
477.325826645 602.473738069 364.323800693
477.407139827 602.48910603 364.326953567
477.488452249 602.504539739 364.330107649
477.569724043 602.523487268 364.333326303
477.650980084 602.543797297 364.336569996
477.732158094 602.570855973 364.339937706
477.813290737 602.60183828 364.343377519
477.894314859 602.642206277 364.346989809
477.975248059 602.690437961 364.350746608
478.056089101 602.746640127 364.354649877
478.136820148 602.812355447 364.358727966
478.217456469 602.886263365 364.362956607
478.297929862 602.974262552 364.367444199
478.378363171 603.065728488 364.371995497
478.458693105 603.166134987 364.376711093
478.539009168 603.267741214 364.381448736
478.619266543 603.374423215 364.386279655
478.699518949 603.481534979 364.391118471
478.779728053 603.592391817 364.396026109
478.859862893 603.709671552 364.401051778
478.935022047 604.25728537 364.413985539
479.010181201 604.804899189 364.426919299
470.707820389 604.630272417 364.048018804
470.795117074 604.128142808 364.041661815
470.881611014 603.695440544 364.036580667
470.963945274 603.622498162 364.038110694
471.046278028 603.549686078 364.039643116
471.128591799 603.478515745 364.041205708
471.21090557 603.407345412 364.042768299
471.293131917 603.34373614 364.044469838
471.375356959 603.280239719 364.04617345
471.457442959 603.228768652 364.048098048
471.539513004 603.178677544 364.050048005
471.621404723 603.14400943 364.052281384
471.703254291 603.112986751 364.054581754
471.785056347 603.086073366 364.05695764
471.866839979 603.060753381 364.059362806
471.948618893 603.035841399 364.061775471
472.030395065 603.011166627 364.064192494
472.112210853 602.98306548 364.066546552
472.194059835 602.952093587 364.068847856
472.275939145 602.918498581 364.071100955
472.357854656 602.881772761 364.073296521
472.439778906 602.844291062 364.075478196
472.521718189 602.805509248 364.07763598
472.603641404 602.768117039 364.0798193
472.685523183 602.734308543 364.082068476
472.767399997 602.700929506 364.084325544
472.849255803 602.669367411 364.086616002
472.931114877 602.637522567 364.088901264
473.013002441 602.603213768 364.091141246
473.094890642 602.568849895 364.093380217
473.176821508 602.530796018 364.095551377
473.258752374 602.492742141 364.097722538
473.340630589 602.459241872 364.099977378
473.422504626 602.426102999 364.10223886
473.504213317 602.407264483 364.104763134
473.585890098 602.391185684 364.107338123
473.667508267 602.380176171 364.110006267
473.749106898 602.370856421 364.112705464
473.830715465 602.360677362 364.11538887
473.91232911 602.350059101 364.118064205
473.993973606 602.336772616 364.120690507
474.075641042 602.321502066 364.123280348
474.157244406 602.311772966 364.125972023
474.238779815 602.307921162 364.128771702
474.320302751 602.305148087 364.131591205
474.401806747 602.304013084 364.13444081
474.483321189 602.301974653 364.137273813
474.564859009 602.297914265 364.14006966
474.646406899 602.292983002 364.142849502
474.727990367 602.284974645 364.145572798
474.809585119 602.275990394 364.148278161
474.891253841 602.260608617 364.150865958
474.972921993 602.245276234 364.153454663
475.05457777 602.231014023 364.156063035
475.136233548 602.216751811 364.158671406
475.217871714 602.204012808 364.161307768
475.299509067 602.191344106 364.163945423
475.381085234 602.18396716 364.166680322
475.462652069 602.177397432 364.169430055
475.544181822 602.174034732 364.172238723
475.625701081 602.171579681 364.17506407
475.707194409 602.171367338 364.177930631
475.78867615 602.172157054 364.180815606
475.870133084 602.175092354 364.183740009
475.95157368 602.179440597 364.186690378
476.032992226 602.185695981 364.189675793
476.11438998 602.193749526 364.192694253
476.195760095 602.204193513 364.195756641
476.277093041 602.217852232 364.198878105
476.35840975 602.232915187 364.202025374
476.439694692 602.250725561 364.205223131
476.520971589 602.269231764 364.208433676
476.602224349 602.289825456 364.211682581
476.683477779 602.310361311 364.214930424
476.764734673 602.330597469 364.218172759
476.845992213 602.350777782 364.221414068
476.927257889 602.370254454 364.224642446
477.008523565 602.389731126 364.227870824
477.089808409 602.407550036 364.231068738
477.171093538 602.425344203 364.234266198
477.25241158 602.440291909 364.237411349
477.333733398 602.454912971 364.240550498
477.415057938 602.469298657 364.243685321
477.496383121 602.483628708 364.246819121
477.577673865 602.500937308 364.250007658
477.658951255 602.519400856 364.253217418
477.740141931 602.545364111 364.256564998
477.821282191 602.575687661 364.259992706
477.902313957 602.615394602 364.263592848
477.983254822 602.662963304 364.267337463
478.064104875 602.718386153 364.271226411
478.144846538 602.783183306 364.275287627
478.22549005 602.856469365 364.279504841
478.30596474 602.944356342 364.28399037
478.386396338 603.035970182 364.288544387
478.466716806 603.137195406 364.293275028
478.547022586 603.23969101 364.298029015
478.627266221 603.3475613 364.30288177
478.70750564 603.455796314 364.307741228
478.787708309 603.567209646 364.312659092
478.867834672 603.685222519 364.317698234
478.942848507 604.245404608 364.330862957
479.017862342 604.805586697 364.34402768
470.71553509 604.628057457 363.965073847
470.803008754 604.110621426 363.958435578
470.889649872 603.665190143 363.953120514
470.971976886 603.592874367 363.954662056
471.054302014 603.520721813 363.956206597
471.136603363 603.450625859 363.957788933
471.218904711 603.380529904 363.959371268
471.301127771 603.317204961 363.961078031
471.383349662 603.253981077 363.962786652
471.465424253 603.203496799 363.964729383
471.547481941 603.154474443 363.96669898
471.629364047 603.12063764 363.968947636
471.711204653 603.09039015 363.971262252
471.792997587 603.064265642 363.973652634
471.874772036 603.039739841 363.976072395
471.956538771 603.015881209 363.978504416
472.038301021 602.992410465 363.980943566
472.12011253 602.964679508 363.983304427
472.201965308 602.933379183 363.985599695
472.283850952 602.899236469 363.98784273
472.365775821 602.861701227 363.990023421
472.447711067 602.823268548 363.99218762
472.52966416 602.783292275 363.994323454
472.611601407 602.744686584 363.996484474
472.693497784 602.709615549 363.998710449
472.775387146 602.675151266 364.000947574
472.857246826 602.643254012 364.003231873
472.939108983 602.611142612 364.005512236
473.020992717 602.577165096 364.007758306
473.102877333 602.543111213 364.010002973
473.184821109 602.503940776 364.012153615
473.266764885 602.464770339 364.014304257
473.348643319 602.431251147 364.01655875
473.430516568 602.398180467 364.018821485
473.512219261 602.379860613 364.02135529
473.593889041 602.364387409 364.023941407
473.675488784 602.354971462 364.026638837
473.757065182 602.347574599 364.02937337
473.838663264 602.338302364 364.03207344
473.920272428 602.328071604 364.034755896
474.001905742 602.31575223 364.03739997
474.083557013 602.301879782 364.040015504
474.165147812 602.293237393 364.042727148
474.246674475 602.290142034 364.045540729
474.328192671 602.287778845 364.048367764
474.409698013 602.286527468 364.05121523
474.49121152 602.284569862 364.054049719
474.572743303 602.28103165 364.056855161
474.654286333 602.276520652 364.059642727
474.735869106 602.268572476 364.062367129
474.817464494 602.259533211 364.06507148
474.899142584 602.24334125 364.067644389
474.980821133 602.227109601 364.070216569
475.062509625 602.210018043 364.072772946
475.144198116 602.192926485 364.075329323
475.225859645 602.178166882 364.077928554
475.307519929 602.163514907 364.080529763
475.389118717 602.154181582 364.083228711
475.470708124 602.145659576 364.085942567
475.552252977 602.140990974 364.088727237
475.63378522 602.137412958 364.091531948
475.715284342 602.136699481 364.094389299
475.796768666 602.137265905 364.097270171
475.878228036 602.139990466 364.100190702
475.959670973 602.14413624 364.10313735
476.041089721 602.150374155 364.106122444
476.12248566 602.158584659 364.109143788
476.203843 602.170133576 364.112226481
476.285148429 602.186172082 364.115391677
476.366439105 602.20348658 364.118580322
476.447700915 602.223297584 364.121814844
476.528956093 602.243682266 364.125059909
476.61019137 602.265787983 364.1283366
476.691427376 602.287830741 364.131612135
476.772667154 602.309547254 364.134881674
476.853907521 602.331212856 364.138150277
476.935155305 602.35223698 364.141407092
477.016403088 602.373261104 364.144663908
477.097683021 602.391504768 364.147869627
477.178963433 602.409706933 364.151074584
477.260282987 602.424523885 364.154217333
477.341607032 602.43895237 364.157352942
477.422938737 602.452718359 364.160476378
477.504272252 602.466327758 364.163596935
477.585577302 602.48239911 364.166762735
477.666871313 602.499425095 364.169946078
477.748077809 602.524020091 364.173268514
477.829233424 602.553015674 364.176671818
477.910279007 602.591527621 364.18025
477.991232401 602.638012737 364.183974703
478.072091512 602.692652164 364.187849254
478.152838091 602.757024153 364.191902657
478.233484613 602.830049798 364.196115085
478.313959038 602.917959733 364.200601036
478.39438855 603.009754053 364.20515837
478.474702234 603.111565998 364.209899793
478.555000122 603.214744129 364.214666322
478.635231179 603.323702275 364.219539069
478.715458462 603.43298688 364.224417814
478.795652851 603.545116337 364.229348839
478.875769183 603.663996771 364.234403923
478.950655673 604.235192638 364.247771043
479.025542162 604.806388506 364.261138162
470.723246699 604.626109844 363.882133803
470.810884977 604.094436781 363.875233906
470.897664874 603.637002898 363.869698274
470.979996793 603.564262944 363.871232021
471.062325671 603.491786067 363.872770603
471.144616222 603.422623954 363.874370099
471.226906773 603.353461841 363.875969595
471.309106018 603.292196604 363.877714209
471.391303899 603.231049231 363.879460988
471.47335449 603.182640721 363.881441866
471.555388177 603.135694048 363.883449607
471.637267932 603.102060693 363.885702001
471.719111301 603.071574123 363.888012224
471.800894697 603.04627453 363.890417765
