VERSION 0.7
FIELDS x y z
SIZE 4 4 4
TYPE F F F
COUNT 1 1 1
WIDTH 1148
HEIGHT 1
VIEWPOINT 0.0 0.0 0.0 1.0 0.0 0.0 0.0
POINTS 1148
DATA ascii
476.570442156 603.55285572 378.443071685
586.072272576 612.723134759 377.089467925
639.328647605 612.863594524 365.614893693
578.615261365 612.229811117 375.911591015
490.03363853 603.798282719 377.816228121
547.545323687 612.437150336 360.705251363
547.883226989 612.915430201 376.146187374
478.392591129 604.305296557 377.666031778
554.790185752 611.985763731 377.085315802
650.93229091 613.165492698 365.62562514
471.897713464 603.846077028 381.164130347
578.715533594 612.983279934 383.134126537
475.570968642 603.89744437 381.449288896
642.637781857 612.758217228 369.312594489
493.442579224 603.970910493 358.354143162
473.314951747 603.749273122 377.23793345
650.994824991 612.006352377 367.337298272
508.891692331 615.488658608 371.786912754
648.410476836 611.933278596 363.687706943
571.534057666 612.706010912 384.904945049
549.337426949 612.499519903 376.589825738
648.820107102 612.312637953 366.621766044
578.253538401 612.457350186 382.383463728
491.422122443 603.75314855 382.886050161
653.857642999 612.422245911 367.740945376
569.091559094 612.212943053 375.727415103
547.950783858 613.170510083 379.324713741
491.053466075 603.720977363 360.895948737
584.896408503 612.015927333 383.510949386
646.6750242 612.511248431 370.114647725
569.641181481 611.480198085 368.630592325
648.585727736 612.441073049 360.396448094
547.043232503 613.120020697 376.925581511
556.182731761 612.164972147 383.986498725
471.175084152 604.562331781 379.278851004
554.091939866 612.509015069 375.670690138
613.54015835 614.861819341 369.144805653
563.373897514 612.718187815 376.406109886
654.330353587 612.96775964 367.976968721
577.100159186 612.252083728 377.158503049
475.423287844 603.96822617 357.971182485
570.625701336 612.075054173 360.014516977
554.626344163 612.081018858 370.174134108
648.010773046 612.338431337 368.558059478
546.994766562 612.460214841 360.781108753
600.659090028 615.553302352 370.384227645
646.008218715 612.482310346 369.254050915
569.710669775 612.43836499 377.639867534
640.964321248 612.310794893 368.242948702
489.153888508 603.911958066 363.864634677
646.479370125 612.366635645 370.823519595
645.985943759 612.038968375 365.557246671
490.571313003 603.807360583 377.896958438
548.262732949 612.177957381 376.738202748
491.924568564 604.021091832 378.955012989
554.084679699 612.531078965 384.995022325
474.838355355 603.965338183 383.493810014
646.496581543 612.52947406 365.334075014
579.431022848 612.709307551 383.250093722
446.306128045 619.089474497 365.946252272
646.064860824 612.171287619 370.224853841
489.836272644 603.791954713 377.423581057
477.113965924 604.086383373 383.018655746
511.491384109 615.055152666 369.527061563
650.665133992 612.063207641 363.350193549
546.903362297 612.879076412 369.981366216
648.222483903 613.303958489 362.699197058
643.614394407 612.649040081 363.753867213
570.848807583 612.864030981 360.987972698
642.418431618 612.251330662 365.115290116
472.848543132 604.20316358 380.839295104
641.23311831 612.375833783 369.576066685
554.176789727 612.174281693 376.753873865
473.53630433 604.564578822 376.042894391
613.611994382 614.752504499 368.719724915
494.364702345 603.628521341 361.649937531
472.880445741 604.6856048 384.883334255
642.048759562 612.93251467 366.884787622
648.424208062 612.461486162 372.653132689
493.814511885 605.126437427 375.121631611
473.457528039 603.703910917 379.369175246
447.35657588 619.025436728 362.973519514
650.289520733 612.065321206 364.904986608
490.926679927 603.758827437 383.19725868
476.259382103 603.83174217 379.023443086
474.065481651 603.667376807 378.666750543
475.734414304 603.904462449 383.027788084
512.818331556 615.614793955 370.628777473
446.079154225 619.338157351 374.407208587
473.663237525 604.010154387 376.141944205
545.580935485 613.210606854 376.444513569
489.341948322 604.18513018 383.737801699
477.378868301 604.343048859 383.605867775
649.556082537 611.844638378 364.711625706
548.204574986 613.167457754 384.213564781
476.220220873 603.456116225 362.094848837
491.339358389 603.889926471 360.852357576
561.374856904 612.492178158 384.826330778
445.740734555 619.616537668 374.01333366
611.179462933 614.680277861 367.220279048
615.777356196 614.730880752 370.531605061
475.176999812 603.663044243 380.944042219
647.066289055 612.507096064 367.926649168
492.332567511 603.784970477 377.781980629
611.243118166 615.392973902 368.193185867
645.591029341 612.567509231 369.24778421
645.041465092 612.113485455 365.283967905
474.027671305 604.011770947 380.512560987
555.99269917 612.218645816 360.1164579
475.222823502 603.687532975 382.981460825
643.727218569 612.148730311 362.692283203
475.056976861 603.791655401 376.506541002
644.698984611 612.101626213 366.88344539
645.665567023 612.068028795 363.563000745
643.341219091 612.422643766 364.917815844
493.192869238 604.058390781 376.972050834
490.688608822 604.186648955 377.195703855
554.914630884 611.926212425 375.783555032
650.064274347 612.83385756 370.200980582
570.73605477 612.085753178 383.100503544
569.276699887 612.162712424 367.060403702
475.228186489 604.010680738 381.085361177
611.931131398 614.594571967 367.458874361
578.857042666 613.330748134 382.22759616
651.335592126 612.200334033 362.088527631
473.386762604 603.760953771 383.521628994
546.128021157 612.413378173 369.676129943
477.618877614 603.665072826 361.821056806
648.907649467 611.880917246 367.529493448
489.428468644 604.089384979 359.320811901
471.430078311 604.12391256 363.359672824
644.392065232 612.647250379 369.634061828
547.023719638 613.225272658 375.514857719
570.191311089 612.663897343 377.205241919
569.766021185 613.279313264 382.466819389
495.448553976 604.037696173 363.612808958
569.971353257 612.80400737 384.618206603
512.579240415 615.908462392 367.492838586
642.885078939 612.487198721 364.837293223
569.385767635 612.063205037 360.792587264
472.471820867 603.735150628 378.267732737
493.32535595 603.880144434 380.964961998
509.879527532 615.213163105 366.855437129
493.931950025 604.010615213 377.367222968
642.630110976 612.389789711 371.731726487
510.480006197 616.31103074 370.979066157
644.539622072 612.651405847 361.32893194
473.19097138 603.743577808 376.390362255
471.906123566 603.910582888 377.824325395
492.080934414 603.654397766 361.52751323
472.82028626 604.109598357 381.839039745
600.328191412 616.568995744 367.794853128
569.359295242 611.484107994 368.315903899
649.316625074 611.976122011 363.579444403
472.862870274 604.028572542 377.138016352
472.213245691 603.967110995 378.329560432
473.354307892 603.692892394 377.958323953
555.395522642 612.460382631 367.120858556
473.421831765 604.239606675 381.390264624
547.785038875 612.056297367 376.378399979
641.085594494 612.688584449 367.571333538
472.253543993 604.470742435 376.41850627
548.203819676 612.72416288 378.102696925
492.203763674 603.94340387 375.900519952
510.61996822 615.537740958 365.761059018
473.246909408 604.076571374 383.094710468
447.678843847 619.062897308 373.788057402
494.744065011 603.992260183 380.348419185
492.775977614 603.755552264 378.019085325
509.036861897 615.42717228 371.866044855
475.156533439 604.366559414 364.40503869
611.484198817 614.7172207 364.792509244
547.035087505 613.061803725 376.142104011
584.135197942 612.382644962 384.368708857
474.115840242 603.991407625 378.71079924
494.735258984 604.002790192 381.288634538
476.479668519 603.662398173 358.569531028
556.308710379 612.308219494 376.42003608
647.436491237 611.95153919 369.168281137
646.292422875 612.272465084 360.700022114
576.596535822 612.923688644 374.994715859
491.657151621 604.431493692 381.22529325
641.1496078 612.662487162 366.866465894
643.924337006 612.747289848 360.464071024
473.728561503 604.044363835 382.078288929
477.911872731 604.468876017 359.940113233
494.866108227 604.028041047 379.124803193
652.083414718 612.040251731 368.203992211
646.683534796 612.534693283 364.159550171
641.342981492 612.767531862 363.978577164
649.933872286 611.959597916 365.306067134
510.345268358 615.133784743 368.503161623
477.766365578 605.372248238 376.631704075
492.804440516 603.833268728 379.003832456
489.700250891 603.988818869 358.852095125
495.313903552 604.143240011 375.962679062
585.629073096 612.791280208 374.01656337
491.797211798 603.828742631 377.275518382
617.996546487 614.685433877 364.194709918
445.661288927 619.135528892 370.4095997
647.492858042 611.998495871 364.388692949
575.823043876 612.77184852 375.271169961
569.402951883 612.701113411 376.496447135
547.837895318 612.318211782 375.878326277
489.505240853 604.573503433 383.45813322
644.117605483 612.232215693 367.350720948
492.364901299 603.651542326 376.857017972
549.377190285 612.833567053 384.738363735
473.46280124 603.582114194 361.690528714
653.469718429 612.665736828 369.540902709
576.529990338 611.951073195 375.589471897
578.659021528 612.65999555 369.79908029
547.214285096 613.69007274 375.465988401
563.504043057 611.941865462 375.825981704
569.271067736 612.738360448 376.260712463
491.91938137 603.796732607 376.36970174
640.140187523 612.812982601 365.226830353
642.515601488 612.679973347 365.551108647
472.85530241 603.785829926 378.019374565
649.826461246 612.028694318 361.465980088
476.507132283 603.654587474 383.379028376
472.975152498 604.095916997 381.839757852
578.232544124 612.287293964 359.925061906
561.478649095 612.566727538 369.140467658
448.217117972 619.917542975 370.967821605
577.317536977 611.99842953 369.637791242
639.671041177 613.428895107 365.178936656
652.96476874 612.625155024 368.177063564
647.164222091 612.443782702 368.158057343
576.017251917 612.329685128 376.291599397
569.586598517 613.087636487 377.172038839
545.992155065 613.809650255 378.139303358
644.914178031 612.524773953 369.327448508
489.132328695 603.959333123 376.714887646
475.974644433 603.656037981 360.246629877
561.549260098 612.486768542 367.495466162
602.45695929 615.279364786 366.788412711
546.770958338 612.467289095 377.470009859
569.654839725 613.166558748 385.713023276
600.049351453 616.122487638 369.64548809
648.800200963 612.131512735 368.752570814
647.825090653 612.507968278 369.907894374
577.305382255 611.761017496 375.514967151
489.323636119 603.928500091 378.831426758
472.766857864 604.24479731 359.917686334
547.771898638 612.901391402 368.08567141
472.651720605 603.702482852 360.43296278
555.539069116 611.725006346 376.49196588
556.129540884 612.718597441 368.504377812
470.87555957 604.870623684 365.123979186
648.507996939 612.003238075 368.120459158
472.750945392 603.95353689 363.287554373
644.146052942 612.641677217 363.051041456
586.507865245 612.316143346 375.525136538
548.147665208 612.298934651 375.454114755
642.338631789 612.794115998 363.345442741
561.885125451 612.341588851 368.829325719
648.992906564 612.338673229 368.87585578
546.151526335 612.75093151 361.213032454
472.284163601 603.921498489 379.628182035
471.174567563 603.778051533 364.657474396
445.090536323 619.168733492 367.351090035
446.3056648 619.122330593 372.684830929
614.85964143 615.315854196 371.108631267
610.87127849 614.778874803 368.080619932
652.493310352 613.008283626 364.722246009
476.610940631 603.589165535 379.368563192
639.416566184 612.859291607 367.182421965
477.093262372 604.456205491 378.354479655
611.55628747 616.192483662 363.144236448
584.193485368 612.712440924 384.760055157
548.466460399 612.36985624 375.485002712
447.964766533 618.994640835 368.147813395
509.847876255 615.264644314 372.261779006
646.474899449 612.291446815 368.74188439
651.635090505 611.993131542 365.45962232
473.248259348 604.067383957 380.576672576
578.415754642 612.107109567 383.369708149
491.674163751 603.85278865 358.46938525
584.305052567 612.235677402 384.13470541
445.674392876 619.167386529 362.73066417
554.22470597 612.36131982 375.499990596
490.260040616 603.679756728 363.556621706
476.698352567 603.794753289 359.230925422
648.721169689 611.883901498 362.827273485
651.240940281 612.093490222 363.890528634
476.54676544 603.834092339 380.121706735
648.938278636 612.57725967 373.046958653
508.810018046 615.59451366 366.849873252
650.458317269 612.550246232 372.583642531
560.881142699 612.958070024 369.494916579
477.892706708 603.787991022 362.292154852
578.046341617 612.882450959 376.960165373
476.230425602 603.895241225 383.567851283
495.697624664 604.265629309 377.766326038
645.370843945 612.504042825 360.695432308
447.266200101 618.982611652 367.282809259
549.127374361 612.386716784 376.275703017
474.596873367 603.911378857 365.176412473
474.406211338 603.474095292 364.045647114
474.278416876 603.489986239 364.593539604
471.684031741 604.100897932 363.12578243
473.760082189 603.771323107 363.214073439
495.289863916 604.098923264 376.197734657
648.972463764 611.890422867 364.317149692
475.994890558 604.054392972 376.122610014
547.182644029 612.159959334 370.342057972
647.194329898 612.002730216 370.969292528
644.348513355 612.253573256 371.157318116
577.947333184 613.367840116 381.988399908
489.477737866 603.693349728 362.769547272
475.980947396 604.737179273 375.807683297
612.803299284 614.757333683 369.891461361
548.166649649 611.931896564 367.996226365
585.627508585 612.076593857 376.569974871
555.542009463 612.424743389 367.199942043
473.383778928 603.977807581 362.350043064
473.177340725 604.109973523 382.687659507
645.62296242 612.614722623 367.60657286
649.211681444 612.79124284 360.98083967
489.903303367 603.763233203 382.487487045
646.095266772 612.047160385 364.38237005
649.300117993 612.22315794 369.76900547
585.621130081 613.25022179 367.13508692
601.745652373 615.26140873 365.218156807
548.329508361 612.551727485 384.54373311
548.507120338 613.763682518 366.985906426
474.01909625 604.01213016 382.304060525
545.799254673 612.814163412 377.22988477
577.805956772 612.433239426 385.090147409
641.173698472 612.328628413 366.833427891
545.589539159 613.908418294 375.894586348
646.812790246 612.328472628 370.153725329
547.042554647 613.237734851 374.96219019
445.049295614 619.173426958 366.959114615
651.42185292 612.468312901 361.304782799
640.186648238 612.456091154 368.317537633
472.604083417 604.228054928 384.256217434
549.066273934 612.49829476 369.924097584
494.896280134 603.987303574 378.703622809
651.320157065 612.041017833 368.043880736
617.732939594 614.661491383 364.507012712
548.197713436 612.611698156 377.677275925
641.042087946 612.310499676 368.243295444
491.703579487 603.863393505 375.786257111
556.754526076 612.936712111 377.831110757
576.969617386 611.949027707 375.042938114
645.322801292 612.37526905 370.303707919
561.189740866 612.54180751 367.616613933
475.104422203 603.601724055 377.496167057
584.093737765 612.783181881 377.144002843
649.344010629 611.85456062 361.96818709
472.448503184 603.922915624 376.606859964
615.109449933 614.994679502 368.6475229
494.394961006 603.757269569 378.183000188
475.720778855 603.782380012 359.696738934
554.913049728 612.660892395 374.953928081
494.878742916 604.031892012 379.830058865
490.72879716 605.28003226 364.842886395
491.624962038 604.288004023 379.8150373
650.896419825 611.962053561 364.996920438
614.464092805 614.825188352 362.924990972
647.542916739 611.98350709 363.840452574
648.249729387 612.660183355 372.965362922
490.643231894 603.729917883 361.129173228
646.469781993 612.53260606 364.78545437
475.921898583 603.61829965 360.794969423
577.212643958 612.098135466 384.181785152
577.748649092 611.950794153 375.80034706
585.445049592 612.055783038 366.774657281
475.288314945 603.587748983 377.183589393
568.866377161 613.125206486 361.10146283
641.822603126 612.716455698 366.331511341
641.790512647 612.458604146 366.556322538
478.15177721 604.070764387 382.243974083
643.609826683 612.702961964 369.708819253
473.653039994 604.001818917 382.533291889
602.066343845 615.510914384 369.450303581
641.682191786 612.768616986 361.159254399
489.976157397 604.328469657 360.688653218
646.688357902 613.645373195 366.844538394
569.303539919 612.621269334 369.130671833
649.347329595 612.177372552 365.057269774
569.158050823 612.676485875 369.051551525
562.872028162 612.74022222 376.795611724
472.319379621 604.129550106 378.859225274
475.711215354 603.896527474 380.755366102
491.172961326 603.830425776 378.134656796
652.081332953 612.291679758 367.934534951
445.035103606 619.159991321 369.623197197
474.543152517 603.700599302 383.605259399
475.770099306 603.960460663 381.087878943
475.945721146 604.813851741 376.732752701
562.781929457 611.792492116 360.103065751
473.235334998 603.884053569 380.259345543
493.797896209 603.748688751 379.919090529
510.922616075 615.270847783 372.423262121
555.841849995 612.408662875 377.387641798
577.093992921 613.55353971 366.185837283
643.90857208 612.241014505 366.252782518
474.551932479 603.822494739 361.415292831
474.089344976 603.985807339 379.013460075
576.793056966 612.830636494 367.78699831
546.328294499 612.740707945 376.855501191
577.109224998 611.593996875 368.305657789
447.978618084 619.043341896 372.222304939
642.332816219 612.75545097 360.848752335
490.953092407 603.686268624 379.514778601
570.721366737 611.593251524 368.791874473
490.143266151 604.251286357 378.916981127
570.474215868 612.676712079 359.889710759
475.883764998 603.611768697 380.007019187
476.478916433 603.546037226 359.35333688
562.300210661 612.435186335 378.170275843
492.344123121 603.733053438 381.32306821
651.440183033 612.056015293 368.436165307
649.551978092 611.934888049 367.733467742
473.887809627 604.02024294 381.206469572
648.074206039 612.341806026 368.71504748
492.142870075 603.773028368 383.516067289
645.775107551 612.557173416 368.935199701
477.579528077 603.921781412 382.942718376
491.921823299 603.719897397 362.03065427
509.63481955 616.027212664 372.386317743
472.151074399 603.894241206 378.530657608
616.360405216 614.490595371 369.986211742
641.0225827 612.734333313 368.27616422
493.046164496 604.069868102 379.400421942
547.108498445 612.903847986 385.746751359
548.238082866 612.295458208 376.585362923
472.619202712 604.257511656 359.838645965
547.584310676 612.80526138 385.166733218
548.36647925 612.535444083 375.331726256
577.36922707 612.938322502 367.486568779
474.38080782 603.639731056 364.000677435
644.557332928 612.13053663 367.587961555
476.254531951 603.579401946 359.273911484
493.130457465 604.450135351 384.145886844
444.824057627 619.453996152 363.666552204
648.046590819 611.937227218 370.973223787
649.289503987 612.521821534 369.973779377
547.2860289 612.38585569 375.636427974
546.462074485 613.019321281 383.549651849
585.974323074 613.603301681 374.094744923
492.786456693 603.660451655 362.314204524
613.089408682 614.754572617 368.482325473
644.751010945 613.136098992 360.153505287
577.775070416 612.023045326 383.949377452
615.8838813 615.59969156 368.179556172
445.35705313 619.148170552 367.822457944
495.483699908 604.075759766 361.575618889
561.387937557 611.93384316 369.342618127
473.987867582 603.587862195 361.066002379
577.711590667 612.588602809 374.104615707
647.183773878 613.225402213 359.571142414
477.85043109 604.080449352 377.179065337
446.469260422 619.096615335 371.745336512
647.403483057 612.498029083 363.927762572
568.882577207 612.387275081 383.953539017
455.766031784 616.32717785 370.25927214
510.171019233 615.966493468 371.60526826
474.90001212 603.47706124 364.596333411
476.87831605 603.807456231 379.888169339
642.698699405 612.670288202 362.731113764
653.582022669 612.305039051 368.131747665
494.288756083 603.991407669 378.544197431
511.749231784 615.190268294 371.016695906
641.586431323 612.503827557 367.103813672
548.408008848 612.381422358 377.727435078
617.863816175 614.645332796 365.604618797
547.607827062 612.506175838 384.339396794
477.253656378 603.847116046 383.41579407
584.069395162 613.585520711 366.093951751
490.486510688 604.07275664 357.13157697
477.864039233 603.559702083 378.762240313
650.50908737 612.373246792 370.669839186
644.525596278 612.145748242 365.830098668
548.300046071 613.761626049 369.574980487
473.074534431 603.960265091 357.691827478
647.229618878 613.400122958 361.260970011
473.928630402 604.022012499 380.74716778
547.357976817 612.988879793 384.371116283
555.828451753 611.744526673 368.34414763
569.849316962 612.308554733 370.196900691
549.534719929 613.489119728 369.61066862
549.441606675 612.834177931 375.649307331
447.031972016 619.006147183 368.143637508
650.373107373 612.138365627 364.043284334
614.04611587 615.129474258 370.88522306
473.184270084 604.067797075 379.568412395
477.503992582 603.713352668 378.196930275
474.519878472 603.790620365 358.795607427
613.09544975 614.812365264 370.127714847
651.208114897 611.823386899 365.345874442
495.843394231 604.643303344 378.079604395
645.080991873 612.653449524 371.439312087
578.271382235 612.876663809 376.188273845
646.139506 612.222793115 361.48301016
495.44110278 604.095783521 377.92225509
649.552965335 612.894847699 372.392555386
494.105440072 603.861702456 380.860497875
571.528709467 613.366774254 384.075457123
645.716214451 612.582135426 370.423656476
584.902848219 613.048280598 361.005627888
478.035741501 603.714027757 381.191727496
475.83764006 604.04443754 381.244715345
645.704508274 613.475259947 360.146375606
563.591669651 612.535190255 368.993225866
642.018731248 612.2836436 364.40823549
653.030551217 612.980528856 361.859357903
585.94990857 611.807486062 376.228932843
650.435448867 612.121410038 370.077039951
554.617174229 613.049224812 386.25000257
615.353993482 614.583817732 369.981535973
474.303694256 603.979712695 380.894980415
473.950976711 603.836165782 376.300304359
473.019092734 604.025712924 362.113249783
585.058284439 612.05589803 360.034285675
569.643415887 611.707362675 369.570400224
471.561441277 604.137183689 361.949814407
646.352978547 612.037146977 365.793953276
556.408252929 612.389538894 367.909079231
546.951717176 612.024091301 369.401039798
646.214258848 612.002099084 369.789585882
648.220757708 613.229228386 371.837426536
471.955419273 604.238826759 383.704812923
561.839418218 611.635397616 369.345256577
600.432450942 615.724661625 365.368048485
646.106742166 612.179164626 370.616805617
560.877230013 613.208166266 376.389734806
489.947024398 603.703430833 361.909694357
490.621561375 604.378477643 375.579135397
492.950972718 604.073919243 377.911218224
642.67537256 612.680816614 363.827977281
641.170376539 612.778815009 362.489013657
546.218222101 612.996471925 384.488891421
569.574066391 612.924536741 384.772897134
554.745186199 612.792448769 370.531096682
491.097077583 603.921061477 376.914274593
642.42366136 612.767714028 361.554338373
562.406557763 612.704504431 384.31582923
473.835938048 603.993389484 377.534203363
546.737191942 612.149309904 370.105028636
556.179197971 612.249542208 376.106157745
556.125195279 611.950427691 376.934619283
547.755430344 612.931278334 376.694079946
649.635655865 611.859906815 367.219352326
563.3252538 613.739379247 385.884864855
578.231855883 612.091555141 374.861924277
617.659229997 614.375839295 368.50346285
570.201835346 612.544619879 376.186907022
647.742958373 612.008831056 362.945520305
491.707288653 603.731880327 381.476949081
547.34390143 612.813210127 367.711130315
446.148383398 619.127306576 361.792581519
446.925804919 619.078679188 360.934223774
470.961907416 604.463680075 376.990885724
570.463559009 612.129285893 360.953957759
492.733984017 603.710878212 380.462929777
512.52892041 615.287729463 369.374476396
610.530361548 615.51735872 369.644674023
561.347909227 612.266049505 360.722536346
490.973460194 603.699395447 380.141692746
648.840867795 612.943095766 372.545997116
570.323548369 612.671177205 360.67261579
474.164977217 604.005461712 383.245000599
610.325208462 615.174909614 368.312423989
474.962966325 603.947725726 381.300422688
647.456906797 611.965603406 369.795193519
563.074410798 612.342148073 368.9278631
475.004279282 603.693032475 382.823763758
472.567400436 604.505501022 384.80396417
555.752772041 612.71382618 375.084648142
548.062974057 612.387538853 377.255748153
561.188078506 612.347927527 375.922793034
644.087112532 612.665710911 364.539499977
475.626199262 603.810142951 381.288775598
509.394493703 615.748864136 368.184208004
555.671490135 612.403254336 377.543607758
643.754539826 612.271060241 366.252033632
562.912999069 612.508228718 377.139327176
546.404734746 612.470319219 367.56161885
495.707739445 604.646334996 362.829115776
477.54735537 603.63181238 357.947496341
654.020660778 613.076531336 363.822472168
586.437706716 613.192746019 375.586444144
570.561438897 612.415782186 368.039713995
493.127423325 604.1171223 376.031359025
645.408265676 612.146840329 360.505790049
476.31323854 603.717476632 378.862980503
491.386906629 603.816404328 380.016192045
548.024045435 613.836073595 386.454068972
474.841051844 603.962686744 383.483168979
601.194443356 615.373285449 364.51026016
472.485488704 603.8211057 383.204065288
555.134414781 611.922977804 376.695198236
562.901925928 612.254183918 368.222073257
561.376742303 612.26196036 360.409247714
610.18484772 615.737168627 365.098002034
561.164784209 612.98860193 369.809540226
651.397290543 612.069156458 368.906085076
476.468493545 604.063357624 381.071810517
472.523132739 604.139718423 382.542861261
563.1057446 613.685085145 374.865369173
475.974562518 603.936346528 383.812353673
471.780884103 604.292865986 378.062261776
556.239668779 612.438859111 375.557533105
555.381128669 612.131903346 367.915709389
649.294698319 611.973264063 363.814422021
445.924342193 619.169581102 373.466598119
471.565169474 604.353887524 377.904460281
646.636792389 612.050087425 362.739289782
553.994342347 612.528779725 384.289417547
555.148197041 612.77470932 369.048386595
614.111307057 614.821678553 362.531646233
585.399395055 612.379195951 367.371005043
477.355840093 603.856596668 376.442509729
651.205463683 611.812223804 366.207806515
547.452503157 612.476282497 377.174487662
601.344574215 615.876308248 369.808484456
555.819423364 611.872183022 375.993146542
477.005115557 603.863285507 382.391790334
645.482451189 612.572845809 364.54590601
474.236182619 604.363466163 375.957418233
474.204871151 604.019291162 356.443031599
646.437366858 612.044204054 363.208552959
490.091517642 603.794283149 377.189642996
492.946128515 603.845929745 379.161149179
547.240010104 611.962571741 368.77560142
652.202689186 612.454269047 365.03554578
562.435610146 612.805235079 377.342027076
554.415129507 612.594806964 360.142492597
585.834107946 613.619541238 373.937373843
645.29427086 613.112311576 360.155973338
571.349595773 612.707731113 369.340816386
577.631649773 611.588771078 368.54306317
642.278493851 613.675576649 366.492462016
649.010626677 611.866195957 365.571072927
653.476347258 612.144239934 367.50476508
650.621869714 611.993605938 366.317032072
490.353379709 604.263682253 380.014879693
446.123625295 619.131810909 372.13550597
577.927526915 611.799731939 376.37957491
648.922309662 612.425178921 364.741430245
647.094820006 612.48563124 365.571899215
472.227594151 604.160667744 382.384788948
577.948128902 611.84360456 368.196660173
645.141354601 612.132429613 362.967529597
646.44240872 612.525567525 370.113582232
578.121982646 612.818386074 367.714582452
648.467708799 612.332520491 371.25384163
577.287337639 613.000184168 367.564430321
563.208965093 611.953054257 384.052066276
578.97426002 612.495518479 374.629307931
475.775482911 604.931232172 377.720762193
600.20737018 615.805108718 363.643036462
647.612699293 612.009868838 364.780984337
493.366464196 603.932509519 383.83460265
571.213462948 612.133707141 375.531575543
489.942052631 603.910685905 359.558543557
650.235519651 612.979216699 372.630484629
475.212440244 604.129096287 381.3201107
546.698792761 612.873861329 369.66704114
473.440092183 603.89295067 380.573663694
600.537594228 615.81427466 367.640663032
650.486422203 612.001791747 366.943263136
477.446447556 603.423187342 363.119009005
613.195684997 614.960669993 370.396766464
491.011276909 604.016219076 381.659583364
641.258467369 612.323267427 366.75546008
642.184461985 612.660201454 371.650816684
472.897341936 603.597694053 361.923048343
562.818737212 612.612244353 377.373757595
473.879546469 604.03624211 383.802818733
493.834808326 604.059209834 383.478487002
647.122710795 611.960217756 367.521381992
555.981664051 612.227382616 377.79531708
494.919595016 604.202894527 381.161938987
554.817848187 612.506494028 367.838286791
647.400625502 612.069051447 368.350460997
476.499932935 603.655784802 383.457350205
653.236059725 612.759015378 367.002642956
584.01928116 612.154914342 368.369079391
548.24675171 612.915004793 386.065219506
492.575852912 603.865877771 380.648230636
474.743749781 603.626783738 378.043003742
643.557423833 612.113551761 361.986394078
477.219696568 603.410116657 363.039670946
555.035646639 611.937484431 361.05306763
585.243516557 613.160780055 365.786647102
491.003722168 603.802887659 359.798565171
646.999332223 612.373832131 369.415403539
475.02614589 604.238409507 381.71083313
473.675509984 604.041486516 383.488473984
471.890389103 603.763103704 379.518788333
554.823755272 612.130180087 377.305341063
545.371984143 613.504853661 369.625957043
471.536561271 603.922467433 380.065372414
554.250658854 613.242385272 375.199712493
570.968073345 612.641018694 375.455288068
650.528940322 612.185598857 370.782528325
477.131807154 603.825754202 381.843938545
471.630160687 603.92911695 378.293196459
492.745936455 604.100404913 378.458744601
547.718710046 613.709740043 369.102364093
473.396654674 603.505608065 364.04108741
569.500461664 613.207530924 361.451385936
472.985302795 604.091878223 383.40693944
476.404732552 603.454285901 361.782248331
547.408880991 613.768715068 370.388412027
601.338412928 615.309225838 367.958717327
491.318053234 604.370772626 379.813496877
554.251133962 611.787311953 369.434026734
644.84771959 612.59304912 367.207155825
610.437933981 615.168147674 365.41375334
650.252551069 612.345580521 370.903824903
646.942301664 612.508619974 367.176379054
546.492930663 612.851722175 384.803844744
547.75009448 613.121028727 378.178197445
471.892470344 604.345466887 376.887301629
471.750745351 603.914218269 377.823626183
616.009543909 614.626450382 368.809017885
493.422538963 603.647952211 378.037078746
562.110096079 612.402530141 376.509125271
642.966402848 612.321075338 370.994311625
644.497033404 612.651709691 370.183014381
645.46992653 612.088204876 363.595936359
570.531832025 613.56536011 382.346761029
495.081866248 604.10924633 383.483931886
476.284636079 603.633760684 360.248056525
473.950653559 603.693626931 379.919886465
477.158005188 605.319082932 375.610475334
548.436910819 612.236222667 367.33608777
472.642610415 603.544696297 363.802579777
618.066489996 614.410143166 367.486570027
651.723135816 612.43967552 370.630595094
641.637462211 612.787656852 368.367803527
611.33519184 615.550832605 365.607501917
556.086613202 612.666207363 368.152792379
547.558698035 612.192649962 370.500375584
471.510148295 603.995016519 383.747852511
647.307313457 612.665133244 368.024705147
546.854128384 614.254242436 385.463196356
491.308453545 604.0274114 381.817595224
493.893388648 603.703413886 376.848822609
490.776401193 604.364277866 375.579854479
447.038150047 619.06554028 363.912294495
491.229296651 603.836992946 378.369962874
476.931875059 603.557426624 377.567861401
649.08487007 612.367703349 371.760501563
473.062778893 604.085880886 383.407296907
548.057307808 613.007467029 369.262064049
642.006436692 612.503295332 365.930338209
490.670747382 603.681176255 379.200107106
477.648265137 603.875070155 359.940191521
493.488764613 603.656826892 361.881048477
510.678281698 615.034246622 369.05334834
473.670584207 604.03064691 377.679443054
618.91122884 615.8436726 368.319610146
570.510207828 611.56034381 367.694014486
585.12357464 611.83393689 375.157828315
562.808223608 612.729556785 376.638637435
652.169196463 611.973047105 366.402318564
643.295625802 612.227793209 367.391579352
493.827322039 604.947149049 357.256808449
476.235730422 604.581716075 381.798079839
648.78614132 611.986650439 366.789673356
652.830644231 612.659300689 368.803245802
644.827846413 612.589627487 366.580223426
472.27075932 604.198918891 381.120539501
648.160234714 611.907626769 367.212685017
548.224308535 611.862831001 369.015261692
546.71583593 613.431374177 375.591409409
569.913980477 612.614735006 376.812329232
493.10921862 603.727490564 380.621277629
652.959106054 612.83982586 369.195219043
650.865227934 612.001575878 367.03396458
649.145237869 612.18618249 367.578645338
511.530151022 615.409419893 372.66074323
478.079797454 603.979229367 362.057515296
650.097959733 611.9236473 366.874001117
647.45803698 612.510500558 365.024968622
649.681814447 611.931825597 370.118592801
648.506804119 611.978745628 362.243775848
555.385733924 612.030507601 361.52456809
548.564847094 613.430915359 385.864327606
478.18789173 605.687568537 381.491012084
553.74795968 612.331530768 360.889793151
560.887479099 612.6749011 376.75306778
645.826615672 612.074054679 364.347268782
476.472023212 604.111643549 377.702399472
584.914605499 612.731191423 369.93897756
649.596161092 612.948401967 370.277012101
644.552931185 612.648604384 364.541609274
563.867231611 612.190357206 377.08077675
554.147784319 612.140394944 369.902960942
445.511085797 619.179964685 372.054321823
643.921705451 612.634908948 362.109780467
471.512849785 603.926535479 377.038977459
562.031263601 612.938140853 383.026115259
648.753887852 611.915186413 361.652007242
548.109824145 612.045639093 369.920794708
652.443720438 612.047768439 362.642275956
478.331842114 603.866454734 378.920388647
583.878694826 613.371665547 376.764912395
555.75463599 611.883091594 376.698042752
547.39740849 612.534918248 377.800970025
569.614670493 612.565772669 368.598567754
561.592630647 612.061885048 360.488986664
476.642471039 603.644267695 382.752801326
648.59433499 612.10085906 368.438293584
473.706508938 603.964676615 380.686903555
647.491999306 612.971531178 365.360763926
490.690999301 603.690942513 363.950298195
562.292371162 612.661624192 383.845273021
647.295481188 613.301351651 371.765458579
647.669439945 612.031740765 364.590629102
568.985590384 612.738814961 377.998170558
476.190659692 603.733017389 384.317731272
553.919376556 612.584034128 384.288967435
638.871258167 613.779383423 369.372034755
569.017295093 612.28196793 375.726939091
642.092840791 612.707071375 362.571626922
642.985607119 612.684278662 367.198675745
471.454367254 604.316670623 379.079391493
641.386273621 612.762232389 363.508642646
641.03850169 612.796358574 364.760725194
476.106040828 603.571622545 377.250730319
643.278240697 613.650693098 372.985655917
553.434869198 612.695326842 375.809196836
475.916333341 603.891531296 377.700390157
649.58213728 612.049984868 361.185271095
476.11370039 603.564747008 377.500737038
509.58493642 615.314535498 370.928444858
555.369287777 612.27247472 384.016500595
447.86304621 619.950630856 374.805639336
642.864996289 612.479666822 364.210368555
474.006414965 604.208397995 358.277795717
562.165325181 612.128616622 377.778539671
474.251182481 604.002129097 381.453852841
547.215425072 612.586357921 378.113477225
554.987954502 613.83839206 385.220697767
648.633023752 613.117694538 371.526070925
478.262772878 604.152635958 381.93086996
473.514861485 603.971955086 357.145267861
473.278195087 604.086018219 376.140070581
547.714421802 612.519404564 359.765553873
646.976164618 613.005550621 371.783620761
583.854453708 612.258062304 368.524841174
548.127983167 611.974566869 369.68595614
600.390847452 615.743209541 368.345367235
578.101258087 611.909976881 375.331864094
446.441348725 619.056951925 367.827476132
490.182873508 603.712789982 376.925533616
489.232127892 603.940823767 361.357517423
490.809041532 603.686901124 361.835209425
474.312147967 603.982155451 377.447331513
492.192071101 604.140273262 380.25839254
561.373141501 612.925677664 370.04566938
489.032337183 604.009492583 363.550462533
474.50227449 603.989982621 383.795029215
617.162788369 614.850045634 367.403264317
647.874516495 612.371601062 370.046154628
475.787746191 604.867050638 380.071643896
546.814798031 612.599400771 361.529729466
477.364795735 603.818756074 381.844990269
472.368250009 604.153076161 382.542143763
646.269121369 612.170439699 370.539190321
475.915107322 605.637773597 377.514443851
561.672106136 612.638818879 369.611315113
489.855959103 604.097610319 381.575913392
511.410660417 615.68767805 370.671096502
639.590636171 613.418280475 366.040521511
643.109071227 612.664048453 362.497884193
554.668176401 612.418893397 359.404933171
585.786831264 612.514824866 366.696854568
647.647259733 612.601110581 364.712194251
491.285712505 603.680617909 379.281201735
641.643551395 612.56665182 368.200925017
553.392341052 612.388746461 369.384429333
471.631271742 604.215956902 380.956714273
568.639758309 613.603947545 375.487403302
577.737735177 612.125344549 376.926538679
641.398143947 612.574033838 367.494609656
477.983583121 604.541504103 376.331654826
613.785417962 615.182497545 368.689971945
491.534269204 604.022129121 381.896967801
644.957989222 612.659587422 361.017351164
645.564126543 612.754945471 366.22944923
645.540955841 612.064664179 362.387107299
563.19105565 612.230056793 360.965884777
648.790134506 612.802385347 363.016206255
650.664595197 612.222340773 371.018123836
473.482264009 603.680173411 377.410425496
555.505482942 612.203506105 375.364199795
570.062686417 612.70109573 360.984817281
653.214433147 611.990077748 364.369668488
474.715280826 603.699849398 382.587393945
651.795603351 611.988643954 366.243910131
549.853150146 613.45018924 384.54862081
649.817886603 611.893950664 362.753777123
549.29589044 612.731027743 383.450666803
555.732145643 612.440111516 383.121993034
547.564305166 612.945801478 377.08498066
585.901999518 612.047976243 367.716984245
614.634411266 615.053964631 364.570751129
491.905631131 603.75519689 360.116105439
645.881047486 612.186820752 370.537428575
493.482241945 603.618995738 379.056038634
474.890418143 603.69739727 383.215029766
471.99724493 604.090614266 376.100510819
546.52402854 612.767322257 360.151515178
473.385985493 603.865020764 358.476978361
569.009861257 613.17528444 383.012167932
650.808906426 611.804607117 366.284413985
554.66889876 611.877926363 368.764336448
571.050926416 613.114521835 366.909581463
563.42656147 612.7763792 385.103781475
490.212104799 604.340844502 381.581216182
612.697517161 615.461749537 367.651019314
495.516943584 604.097470365 362.907779805
562.30022473 612.368453219 376.118261334
473.974467331 603.666502622 377.632825216
649.580318989 611.832072297 366.122175171
569.421701332 611.914605986 376.199651646
547.925266704 614.088173984 386.408590481
495.296039948 604.119592362 382.858012155
546.777073515 612.801935215 367.943700454
447.745138356 618.999843943 371.359437113
491.844444335 604.468437108 375.364208308
546.396079488 612.864071565 384.176536495
578.792228622 612.473824538 384.545956755
601.11213579 615.934960351 370.669246656
473.211831125 603.930880155 376.34132249
511.470103756 615.064978367 369.762015325
494.261451703 604.949450415 383.131235097
600.426741219 616.223334309 366.542317965
510.469810502 615.054077024 367.955389161
475.034368404 603.707324959 378.812802457
548.799828486 612.431188773 378.154704939
474.390725041 603.674151785 378.183156518
473.352623544 603.939589632 380.293599399
472.834738638 604.108257028 381.682394106
569.842045499 612.829976344 370.151261839
647.533080207 612.014675463 365.642540186
563.069216769 612.356543273 367.815931161
474.360778756 603.558884414 361.224435979
490.024868111 604.327889689 361.00229682
584.997570031 612.556401387 385.234101186
562.039422973 612.932634065 367.825022555
445.255152492 619.163043321 366.411557953
471.717823697 603.816021672 378.891057594
474.086960301 603.782931546 365.140564815
512.18870404 615.449137384 367.256999321
472.316349287 603.901476365 377.591101216
650.266470698 611.926284327 368.005583975
490.58727813 604.214879217 377.538237495
617.76207323 614.901101357 369.790364711
571.167077482 613.634783302 359.655706041
611.996385611 615.012859423 367.413775674
473.057974465 603.977992848 380.135494259
645.31024057 612.096383145 364.893418229
570.804025661 613.228800262 382.583751033
476.852307165 604.071255594 384.510524884
599.397356235 617.025362391 364.655492548
554.738063339 612.246270257 383.666471937
569.989110672 614.085673068 369.179374513
644.882976565 612.515898069 360.92830513
473.173064377 604.010267829 377.139435529
563.193232651 612.776701209 385.102742308
477.430577397 603.490961171 362.917575227
578.389657097 612.944201835 376.648137655
491.412454093 603.838836189 361.714710932
476.745764363 603.893436609 383.883574311
651.542310977 612.371386345 370.865003403
648.607127206 612.189518673 360.867211899
490.162259464 604.361106892 378.006176014
584.162524713 612.014777098 367.586448344
474.24943271 603.654546038 378.354170726
488.914660064 604.613694737 381.100497805
492.66091328 603.907094829 381.432086297
614.567417939 615.244681212 371.200726009
472.04913432 604.070688384 384.690368653
617.126439144 615.763547974 370.740883611
561.183471083 612.032253913 368.244511152
562.537033601 612.965407307 385.569562371
547.246371353 613.280484214 378.179849749
473.137996803 603.756918733 377.472198938
563.54407144 612.742007919 375.496158901
646.64253951 612.556736857 371.685765497
598.082179975 616.250508376 371.703347702
476.711306566 603.730503522 357.786854499
646.885003518 612.279953237 368.508664701
549.119630177 612.540658722 369.801381866
473.007361996 604.102518007 381.515803091
492.418663615 603.843249609 360.935616068
646.557844202 613.018171953 369.58775326
491.645054772 604.254874952 379.580127367
548.166848259 612.884820218 368.106424092
562.601028558 611.418986822 368.565538485
492.409988501 603.815489569 361.013992361
512.472777635 615.386544054 368.355385117
576.973359441 612.183715333 366.73668226
585.111448863 612.347002599 374.656936051
601.02270668 615.361834047 368.035557712
648.887499313 612.216643323 369.536343881
612.270913464 614.952545916 363.150030435
475.088961613 603.901714481 379.096442754
473.729993012 603.903840072 380.810000204
554.539646452 612.190995213 370.330229235
584.473204145 611.852085663 375.468321006
576.651742275 611.857475082 375.903636638
554.216105044 612.098300978 375.858439759
556.410167175 613.104817696 361.135081334
472.751098216 604.115874962 384.267766822
600.646102445 615.501668103 368.817150768
614.997903335 615.002514186 362.300141927
651.646798406 612.649163303 369.8166313
477.613185729 603.746233833 384.08896554
477.909736174 603.838304168 378.012141436
476.611740592 603.487463233 364.603929965
646.092479005 612.033317852 365.244307163
548.910999357 613.003543086 360.553423093
476.140566249 603.480111432 360.448959446
493.82344169 604.553663975 361.690086139
615.549053785 614.687368173 370.452324259
548.438978509 612.46011597 378.275901822
569.676333256 612.977594772 374.538171285
569.333438621 611.729922139 369.568973045
477.941782231 604.510142407 380.626247651
506.74010614 615.903163103 372.560026896
585.106799882 611.992915773 383.747003472
477.026552034 603.569424401 380.24726388
472.423336177 603.740165616 377.954080794
474.267037852 603.69518212 380.704855285
646.600654431 612.081627502 366.074538564
510.471541415 615.900869446 371.685100517
579.354345377 613.402428694 382.778153217
471.41648807 605.264158031 378.401636925
578.745754256 612.592652157 376.381545431
653.175532275 612.102515066 368.208721724
577.697671948 611.875569076 375.952761184
491.555675995 604.311156604 383.859594109
556.111215512 612.714213414 378.343362373
647.828039443 611.921613384 367.446246204
491.938250686 604.165897899 380.492278025
570.811717058 611.881817076 375.53031837
553.804588578 612.813191498 378.097818354
509.60738463 615.265793645 366.462332987
642.559816537 612.279017595 368.641898804
650.942246104 612.108082568 363.7431143
646.48042473 612.165323004 370.775210749
643.433028841 612.412975475 364.761532054
474.603029403 603.46967398 364.438314395
561.305516954 613.565990097 384.074043869
495.851449893 604.598163818 379.646863287
571.602722691 612.343802116 383.965737333
639.318764898 612.852998007 366.555148781
563.955649959 612.298551316 383.741235815
644.320506022 612.71896413 367.443843456
493.579075401 603.971854117 375.686400926
643.980631908 612.651460287 361.483156689
614.14893029 615.009955138 369.710586643
491.020122184 603.937275934 376.913897909
493.647472583 603.707080301 379.840152332
641.440244731 612.784240867 367.975150986
638.75164295 612.978416002 366.865785904
569.173914866 611.694159903 376.306988387
477.271820675 603.836892069 381.535342984
477.209345551 603.545327842 361.976199253
646.737379142 611.969661882 369.165131366
651.05691001 612.571925718 369.422386669
506.962768464 616.304252381 373.735518476
640.230707501 612.83875124 363.424981839
613.199899526 615.110376344 362.448624914
473.397815625 603.753655246 381.719496486
646.936041498 612.731453004 365.687110031
476.642880452 604.655807995 377.519752636
571.810929016 612.439176875 375.895754307
555.430548504 611.913706168 376.853248585
649.169534306 612.758264506 363.096344255
651.196285946 611.957922563 367.226091718
555.244843912 612.402321142 375.000457304
473.558953465 603.844235924 380.10415702
600.498086658 615.751372073 368.032401746
490.44275445 604.285778021 359.82889956
477.313452655 603.722477018 357.162700259
553.915057369 612.456250468 361.673837944
490.252909431 604.06146846 363.432921544
493.424235206 603.896977352 364.387659756
585.319599048 612.681251378 373.937061486
618.495832189 615.040090519 364.039471829
642.338596266 612.840542245 367.904904594
478.06081953 603.75883387 383.46408013
477.792569351 604.666086871 380.159346822
556.239050855 612.672974259 376.605288612
492.287364216 603.891970528 360.699859815
645.751370549 612.199281282 372.372871123
475.457037143 603.746518719 379.721028898
648.688971353 613.116653815 371.761391312
560.924207143 613.654350525 375.717644815
494.955394509 603.721530395 362.044152498
570.447515953 611.876321988 375.185664846
493.958376774 604.22652225 381.471036625
474.099032837 603.893151067 380.610444938
493.205066757 603.839009061 377.203406361
611.578509289 615.386128717 367.426018039
640.984589296 612.321964659 368.869866527
475.830006451 603.738567557 377.3720138
475.61558436 604.272224282 384.94088645
493.547851987 603.838884049 358.825028341
645.486136757 612.54356017 365.329548087
474.465171637 603.991977068 359.925777965
491.001064182 603.712048083 380.690283701
611.609027422 615.496821305 368.836335675
644.5614643 612.698647023 370.299637827
611.947001653 615.000229046 367.100156919
475.062728438 603.569203275 364.160573933
646.807368237 612.282827111 368.508313108
571.404353688 612.358649848 384.434961518
646.679135148 612.95638714 370.763769242
570.485860835 612.038986907 377.379471727
562.845202899 611.792736124 360.260059641
492.653991013 603.913729025 381.5103979
647.706295087 612.957029745 367.144985419
474.326665415 603.7641753 359.186585196
650.060268277 612.105857516 369.918690105
645.931695288 612.093235187 362.814417025
599.960822144 615.830969051 363.798597423
647.229016901 612.335512419 370.704057778
647.027116093 612.024458934 363.960934466
546.946786814 612.587353881 376.888195722
578.582609805 612.301436646 376.303076704
547.470368266 612.710523852 368.808899145
642.738054351 612.39706091 361.747080543
493.719092169 603.861566215 358.669029893
562.753254936 613.000136383 359.395185271
492.772471297 603.71181489 363.332667157
491.178115495 603.706293413 380.456014657
476.537422789 603.637150066 376.327124396
563.086564084 612.295694135 368.771302311
561.931589701 611.836034357 367.621403246
645.039402696 612.610446527 370.1855153
493.325653132 603.659621594 377.409771776
546.545732348 612.07555349 368.772273236
490.054288693 604.337502615 382.44244117
546.616022308 612.302544205 370.22703028
491.351172506 604.204546895 378.452317358
