VERSION 0.7
FIELDS x y z
SIZE 4 4 4
TYPE F F F
COUNT 1 1 1
WIDTH 1149
HEIGHT 1
VIEWPOINT 0.0 0.0 0.0 1.0 0.0 0.0 0.0
POINTS 1149
DATA ascii
586.6768849 604.487065205 378.665987001
586.753404187 604.462293396 378.666379779
586.830268552 604.444292664 378.666759823
586.907596986 604.435397865 378.66712274
586.98503743 604.428700911 378.667481523
587.062697023 604.42630409 378.667832218
587.140445269 604.425646811 378.668179641
587.218459474 604.430208155 378.668517249
587.296762891 604.440444401 378.668844184
587.376564954 604.480086963 378.66911581
587.456443018 604.521220822 378.669384631
587.537278702 604.581145019 378.669618111
587.618114386 604.641069216 378.669851591
587.699348904 604.708819295 378.670070351
587.780589374 604.776686179 378.670288892
587.876885947 605.139982797 378.669951779
587.974910269 605.537181188 378.669550902
588.062357699 605.726840567 378.669540372
599.067923058 604.952908974 378.720154586
599.12045451 604.45744963 378.72143265
599.187692339 604.250557727 378.722167966
599.260632641 604.155559321 378.722692829
599.333920517 604.067380991 378.723204865
599.407410471 603.98316782 378.723709443
599.481255411 603.905920169 378.72420092
599.555397773 603.834508493 378.724681421
599.630051788 603.773136434 378.725143039
599.705316485 603.723747144 378.725582119
599.781267501 603.687824743 378.72599587
599.858398984 603.675065391 378.726366056
599.935707271 603.665775272 378.726729716
600.013471526 603.665432123 378.727076549
600.091243087 603.665232329 378.727423111
600.169045558 603.66563904 378.727768534
600.246850546 603.666095154 378.728113863
600.324677476 603.666981787 378.728458383
600.402504263 603.667865648 378.728802907
600.48032159 603.668563864 378.729147781
600.558138917 603.66926208 378.729492655
600.635966626 603.670164014 378.729837146
600.713795158 603.671082116 378.730181606
600.791604582 603.671625251 378.730526772
600.869410317 603.672096024 378.730872074
600.947204135 603.672332956 378.731217815
601.024993981 603.67249194 378.731563703
601.102774572 603.672469339 378.731909933
601.180550434 603.672353926 378.732256337
601.258317366 603.6720633 378.732603071
601.336077658 603.671642388 378.73295005
601.413830157 603.671068558 378.733297316
601.49157439 603.670332541 378.733644888
601.569321511 603.669653183 378.733992353
601.647073017 603.669059861 378.734339656
601.724819337 603.66836479 378.73468715
601.802554051 603.667441995 378.735035073
601.880284856 603.666442489 378.73538314
601.958001847 603.665171931 378.735731717
602.035718176 603.663888367 378.736080318
602.113430159 603.662519545 378.73642908
602.191141994 603.661147796 378.736777847
602.268850596 603.65971264 378.737126734
602.346559199 603.658277484 378.73747562
602.424245474 603.656404198 378.737825331
602.501930717 603.654510691 378.738175079
602.579601402 603.6523315 378.738525365
602.657269865 603.65010873 378.738875733
602.734917888 603.647484889 378.739226855
602.812560127 603.644747536 378.739578191
602.890184229 603.641654311 378.739930196
602.967800227 603.638402079 378.7402825
603.04539613 603.634755531 378.740635546
603.122978799 603.630849311 378.74098908
603.200567784 603.627067026 378.741342381
603.278162724 603.623401592 378.741695462
603.355864997 603.621842222 378.742044582
603.433711613 603.623115145 378.742388375
603.511903855 603.631169932 378.742719413
603.590772324 603.652493582 378.743025494
603.670004816 603.680960068 378.74331814
603.750329378 603.730855063 378.743570483
603.830766691 603.782962457 378.743818665
603.911788261 603.846534094 378.744045284
603.992826493 603.910432679 378.744271289
604.074074671 603.978450809 378.744489545
604.155322849 604.046468939 378.744707802
604.258013586 604.535231362 378.744134708
585.435651869 605.935089495 378.579054246
585.487682306 605.429799282 378.5803508
585.542859698 604.986258369 378.581531213
585.618667122 604.947518416 378.581950264
585.694479021 604.908866285 378.582369149
585.770387893 604.872116946 378.582784456
585.846296765 604.835367606 378.583199762
585.921842329 604.791489449 378.583628477
585.997371124 604.747282269 378.58405781
586.07313443 604.70767665 378.584478489
586.148933509 604.668772965 378.584897848
586.22530484 604.641097954 378.585296087
586.301838129 604.616600871 378.585688349
586.37853871 604.595386391 378.586074437
586.455314039 604.575638606 378.586457766
586.531824928 604.550701993 378.586850855
586.608161673 604.522348348 378.587250371
586.684577335 604.49554321 378.587646974
586.761067406 604.470198093 378.588040831
586.837904137 604.451655136 378.588421895
586.915207067 604.442259911 378.588785753
586.992622838 604.435078831 378.589145446
587.070259384 604.432229771 378.589496992
587.147992074 604.431267251 378.589844989
587.226013197 604.435964352 378.590182342
587.304323253 604.446330851 378.590509032
587.3841305 604.486075138 378.590780466
587.464016005 604.527354997 378.591049013
587.54488756 604.58798306 378.591281169
587.625759115 604.648611122 378.591513325
587.707051915 604.717504809 378.591729935
587.788351002 604.786521865 378.591946312
587.891033163 605.27511602 378.591373535
587.996169119 605.811858367 378.5907102
599.075017225 604.949647788 378.641836639
599.127375704 604.450794378 378.643121086
599.194526892 604.242202423 378.6438596
599.26741403 604.146160829 378.644386425
599.340731971 604.058572429 378.644897352
599.414300379 603.975898678 378.645399035
599.48821807 603.900078535 378.645887827
599.562428404 603.830000607 378.646365819
599.637152019 603.769994237 378.646824868
599.712488259 603.722008761 378.647261308
599.788474162 603.686770912 378.647673771
599.865577484 603.673458981 378.648044996
599.942860497 603.663672934 378.648409589
600.020606924 603.662979953 378.64875708
600.098366179 603.662538704 378.649104097
600.176179712 603.663162472 378.649449111
600.253996791 603.663855836 378.649793994
600.331844779 603.665155683 378.650137736
600.409692434 603.666449004 378.650481491
600.487517806 603.667305083 378.650826068
600.565343178 603.668161162 378.651170645
600.64317159 603.669076893 378.65151511
600.721000244 603.669997358 378.651859566
600.798811944 603.670585185 378.652204647
600.876620374 603.671108818 378.65254985
600.954415243 603.671366366 378.652895552
601.032205591 603.67153522 378.653241422
601.109986719 603.671523136 378.653587632
601.187763133 603.671418572 378.653934016
601.265530799 603.67114234 378.654280722
601.343291959 603.670738457 378.654627669
601.421044973 603.670174744 378.654974917
601.498789348 603.669441513 378.655322483
601.576535444 603.668742045 378.655669986
601.654284153 603.668093843 378.656017392
601.732027908 603.667348447 378.656364981
601.809760578 603.66638552 378.656712979
601.887490929 603.665377118 378.657061063
601.965213092 603.664208036 378.657409449
602.042933829 603.663010969 378.657757888
602.120645216 603.661630439 378.658106672
602.198356624 603.660250336 378.658455454
602.276068503 603.65887946 378.65880422
602.353780382 603.657508585 378.659152986
602.431462405 603.655551884 378.659502853
602.50914305 603.653568145 378.659852771
602.586818931 603.651490927 378.660202865
602.664494086 603.64939945 378.660552986
602.74214229 603.646779168 378.660904102
602.819782868 603.644009224 378.661255499
602.89740526 603.640882444 378.661607567
602.975019526 603.637596228 378.661959935
603.052612018 603.633882739 378.662313106
603.130190169 603.629887877 378.662666807
603.207783873 603.626198185 378.663019934
603.285392241 603.622796226 378.66337252
603.363134373 603.622018977 378.663720169
603.441056395 603.624771509 378.664061179
603.519331845 603.634459004 378.664389146
603.598298788 603.657714904 378.664691592
603.677598387 603.687498155 378.664981762
603.757895954 603.736863457 378.665235101
603.838312139 603.788556269 378.665484063
603.919342979 603.852309808 378.66571034
604.000388104 603.916343651 378.665936091
604.081613223 603.983909314 378.666155198
604.162838342 604.051474977 378.666374305
604.265396116 604.537628423 378.665806119
585.442872532 605.934310413 378.50073163
585.494842186 605.427827498 378.502030427
585.549979881 604.983507664 378.503212306
585.62588585 604.946701357 378.50362772
585.701791516 604.909889109 378.504043144
585.777690622 604.872948154 378.504458811
585.853589729 604.836007198 378.504874478
585.92915147 604.792446468 378.505302596
586.004697639 604.74858021 378.505731288
586.080385311 604.70749049 378.506154758
586.156094567 604.66682431 378.506577432
586.23249054 604.639632814 378.506974762
586.309080865 604.616254907 378.507364919
586.385868626 604.59675106 378.507747789
586.462744603 604.578978176 378.508127404
586.539343303 604.555764586 378.508517252
586.615759406 604.528968093 378.508913839
586.692234248 604.503324172 378.509308258
586.768764472 604.478766962 378.509700634
586.845615083 604.460496344 378.510081185
586.922896557 604.450680108 378.510445835
587.000280588 604.442876227 378.5108067
587.077865273 604.439009563 378.511160159
587.155555178 604.437207526 378.511509736
587.233560745 604.44159937 378.511847663
587.311859841 604.451750824 378.512174757
587.391679952 604.491747534 378.512445717
587.471575877 604.533231855 378.512713879
587.552427055 604.59346007 378.512946787
587.633278233 604.653688285 378.513179695
587.714611966 604.723385171 378.513394794
587.795952902 604.793223381 378.513609627
587.898479509 605.278765278 378.513042591
588.00343726 605.812010878 378.512385832
599.082005681 604.944312354 378.563522593
599.13406049 604.439500354 378.564818248
599.201123924 604.229186491 378.56556
599.27400703 604.133065783 378.566086974
599.347374862 604.046456341 378.566596059
599.421024511 603.965376705 378.567094744
599.495044828 603.891570281 378.567579748
599.569375705 603.82385763 378.568053292
599.6442141 603.766103474 378.568508105
599.719658244 603.720235264 378.568940563
599.795706116 603.686213382 378.569350739
599.872792403 603.672567184 378.569722593
599.95005184 603.662318524 378.570088056
600.027757821 603.660831931 378.570437039
600.105492442 603.659907294 378.570784965
600.183348228 603.661360161 378.57112842
600.261203997 603.662812688 378.571471875
600.339059615 603.664262246 378.571815336
600.41691473 603.665701947 378.572158815
600.494736185 603.666481164 378.572503537
600.572557639 603.667260382 378.572848258
600.650388844 603.668230907 378.57319262
600.728220822 603.669216615 378.573536953
600.806034182 603.669836983 378.573881974
600.883843948 603.670386846 378.574227127
600.961638466 603.670637516 378.574572842
601.039427902 603.670788454 378.574918746
601.117207919 603.670754594 378.575264996
601.194983123 603.67062628 378.575611425
601.272749172 603.670318333 378.575958191
601.350508414 603.669876812 378.576305209
601.428263022 603.669344353 378.576652398
601.506012713 603.668715445 378.576999768
601.583760618 603.668051466 378.577347204
601.661505809 603.667334233 378.57769474
601.739243526 603.666470363 378.578042552
601.816964518 603.665278303 378.578390981
601.894688833 603.664151459 378.578739288
601.972424892 603.663255042 378.579087161
602.050157939 603.662299514 378.579435145
602.127871236 603.660956476 378.579783858
602.205584315 603.659609142 378.58013258
602.28329265 603.658168744 378.580481476
602.361000986 603.656728347 378.580830372
602.438680424 603.654720922 378.581180335
602.516358528 603.652687328 378.581530347
602.594044479 603.650807698 378.581880069
602.671731627 603.648951554 378.582229748
602.749382083 603.646375444 378.58258078
602.827022155 603.643595569 378.582932196
602.904645041 603.640478484 378.583284246
602.982260248 603.63721073 378.583636579
603.059853382 603.63350986 378.583989727
603.137431981 603.629523769 378.584343411
603.215049672 603.626304759 378.584695653
603.292704223 603.623808996 378.585046534
603.370499781 603.624080068 378.585392211
603.44848497 603.628072054 378.58573089
603.526839641 603.639314018 378.586055933
603.605917216 603.664740724 378.586354297
603.685261228 603.695395437 378.586642828
603.76540455 603.741734175 378.586901859
603.845678929 603.790644478 378.587156055
603.926632414 603.852880162 378.587385187
604.007606308 603.915516312 378.587613566
604.088837357 603.983198336 378.587832454
604.170068406 604.050880361 378.588051343
604.272628117 604.537071812 378.587483085
585.450111388 605.933888312 378.422408343
585.502102732 605.427831005 378.42370634
585.557266514 604.984023031 378.424887256
585.633227385 604.948294025 378.425300643
585.709185774 604.912516303 378.425714122
585.785090372 604.875683094 378.426129587
585.86099497 604.838849886 378.426545051
585.936544894 604.795057284 378.426973605
586.012078447 604.750943479 378.427402762
586.087688531 604.708331323 378.427829096
586.163310288 604.665948233 378.428254999
586.239718013 604.638987356 378.428651895
586.316348182 604.616391258 378.429040581
586.39320227 604.598188877 378.429421004
586.470156407 604.581949647 378.429797735
586.54684418 604.560483837 378.430184295
586.623356542 604.535576134 378.43057733
586.699899245 604.511263785 378.430969244
586.776470556 604.487512771 378.431360103
586.853336017 604.469533537 378.431740106
586.930597058 604.459316355 378.43210551
587.007957392 604.451047498 378.43246725
587.085511996 604.446590583 378.43282182
587.163171006 604.444182324 378.433172537
587.241143235 604.447920032 378.433511694
587.319415548 604.457545941 378.433839776
587.399242834 604.497683439 378.434110471
587.479146205 604.539313849 378.434378359
587.560008232 604.599754957 378.434610866
587.640870259 604.660196065 378.434843374
587.722250005 604.730795797 378.435056775
587.803637477 604.801547151 378.43526989
587.905973291 605.283345308 378.434709896
588.010713013 605.812312771 378.434061183
599.088984485 604.938787532 378.485208904
599.140723691 604.427782787 378.486516205
599.207693715 604.215636031 378.487261405
599.280569566 604.119372985 378.487788647
599.353978948 604.033578835 378.488296199
599.427698522 603.953871253 378.488792303
599.501828806 603.882222583 378.489273249
599.576303198 603.817325976 378.489741496
599.651268803 603.762067929 378.490191614
599.726820696 603.71831397 378.490620095
599.802934677 603.685589261 378.491027832
599.880015449 603.671834862 378.491399889
599.957261785 603.661329141 378.491765836
600.034935101 603.65920159 378.492116024
600.112649641 603.65788293 378.492464692
600.190538589 603.6599865 378.492806923
600.268424565 603.662031736 378.493149263
600.346284634 603.663568636 378.493492559
600.424144054 603.665092802 378.49383588
600.501959996 603.665763854 378.494180805
600.579775938 603.666434905 378.49452573
600.657611101 603.6674831 378.494869946
600.735447789 603.668561227 378.495214105
600.813262207 603.669202356 378.495559086
600.891072326 603.669759153 378.495904226
600.968866201 603.669997191 378.496249966
601.04665466 603.670128976 378.496595905
601.124432614 603.670054624 378.496942232
601.202205199 603.669874914 378.497288757
601.279969651 603.669535636 378.497635583
601.357728057 603.669077706 378.497982631
601.43548405 603.668572432 378.498329769
601.513237484 603.668016944 378.498677
601.590986859 603.667381821 378.499024382
601.668730071 603.666625769 378.499371991
601.746464512 603.665697609 378.499719924
601.824179322 603.664384257 378.500068582
601.901900336 603.663192631 378.50041701
601.979643269 603.662431099 378.50076463
602.057382537 603.661597645 378.501112384
602.135097776 603.660292698 378.501461026
602.21281263 603.658980198 378.501809682
602.290519142 603.657504032 378.502158645
602.368225655 603.656027866 378.502507609
602.445905252 603.654023553 378.502857566
602.523583606 603.651994863 378.503207569
602.60127601 603.650241848 378.503557053
602.678970557 603.648530885 378.503906458
602.756624949 603.646032016 378.504257345
602.834267977 603.643310154 378.504608652
602.91189476 603.640269529 378.504960558
602.989514284 603.637086478 378.505312732
603.067110064 603.633437532 378.505665782
603.144690209 603.629481776 378.506019409
603.222329072 603.626678189 378.50637087
603.300023298 603.624960932 378.506720287
603.377878023 603.626392986 378.50706378
603.455948593 603.63206032 378.507399308
603.53438524 603.644910799 378.507721326
603.613538126 603.671815258 378.50801691
603.692908104 603.702979483 378.508304483
603.772929359 603.746923005 378.508568019
603.853088921 603.793580393 378.508826452
603.933965169 603.854300541 378.509058434
604.014868166 603.915545544 378.50928943
604.096108192 603.983403705 378.509507987
604.177348217 604.051261867 378.509726544
604.279886417 604.537031221 378.509159081
585.457396427 605.934372391 378.344083352
585.50961882 605.432848708 378.345372821
585.564975674 604.992829197 378.346546612
585.640880664 604.956003693 378.346962062
585.716787588 604.919216128 378.34737744
585.792736405 604.883250587 378.347791272
585.868685223 604.847285047 378.348205105
585.944152267 604.801866197 378.348636717
586.019597076 604.75601104 378.34906915
586.095124611 604.711779139 378.34949853
586.170664766 604.667794854 378.349927445
586.247051528 604.640422634 378.350325114
586.323677895 604.617751943 378.350713941
586.400545377 604.599812374 378.35109387
586.477520591 604.583986712 378.351469822
586.554300639 604.564331527 378.351852978
586.630952164 604.542154462 378.352240876
586.707584767 604.519606125 378.352629473
586.784199531 604.496707732 378.353018728
586.861082305 604.479068232 378.353398092
586.938325508 604.468501037 378.353764155
587.015682563 604.460167836 378.354126015
587.093262372 604.456205491 378.354479655
587.170920668 604.453783222 378.354830398
587.248814427 604.455981178 378.355172451
587.327019786 604.464293346 378.355503005
587.406839806 604.50428825 378.355773968
587.48674307 604.545916574 378.356041859
587.567695216 604.608125992 378.356271041
587.648647363 604.670335411 378.356500222
587.730086012 604.74209094 378.356711449
587.811531922 604.813988948 378.356922408
587.913587486 605.290288065 378.356372756
588.018008092 605.812993868 378.355735821
599.095938788 604.932781953 378.406896118
599.147332099 604.414990075 378.408216186
599.214194354 604.200728696 378.408965363
599.287054772 604.104162817 378.409493174
599.360484531 604.018768499 378.409999974
599.434245302 603.939869274 378.410494557
599.508504186 603.870743989 378.410970757
599.583180408 603.809807679 378.411431556
599.658304776 603.757664861 378.411875815
599.733964028 603.7160175 378.412300334
599.810154623 603.684796101 378.412705243
599.887259127 603.671507359 378.413076424
599.964518954 603.661266368 378.413441873
600.042179353 603.658885365 378.413792538
600.119885374 603.657399531 378.41414152
600.197784405 603.659700949 378.414483379
600.275679053 603.66191636 378.414825399
600.353535504 603.663382276 378.415168829
600.431391219 603.664833744 378.415512286
600.509197599 603.665317163 378.415857564
600.587003979 603.665800583 378.416202842
600.66484606 603.666984516 378.416546803
600.742690974 603.668224046 378.416890658
600.820504925 603.668856037 378.417235657
600.898312902 603.669370785 378.417580876
600.976105388 603.669581586 378.417926667
601.053892711 603.669691072 378.418272648
601.131666181 603.669528723 378.41861914
601.209432569 603.669227437 378.418965894
601.287195475 603.668857806 378.419312777
601.364955791 603.668437355 378.419659755
601.442712642 603.667948934 378.42000686
601.52046582 603.667388423 378.420354102
601.598215807 603.66676531 378.420701461
601.67596095 603.666047134 378.421048999
601.753699125 603.665192236 378.421396794
601.831421705 603.664031341 378.421745165
601.909146359 603.662911144 378.422093459
601.986878342 603.661934746 378.422441482
602.064608375 603.660920107 378.422789578
602.142325633 603.659654777 378.423138145
602.220042529 603.658382348 378.423486725
602.297751586 603.656956099 378.423835595
602.375460643 603.65552985 378.424184465
602.453147362 603.653665301 378.424534159
602.530833051 603.651780524 378.424883891
602.608522725 603.649973961 378.425233476
602.686213008 603.648179329 378.425583038
602.763875615 603.645841645 378.425933622
602.841530389 603.643350267 378.426284495
602.919169706 603.640555588 378.426635939
602.996802117 603.637625391 378.426987637
603.074405628 603.634128138 378.427340402
603.151990108 603.630257458 378.427693869
603.229642994 603.627729023 378.428044812
603.307360376 603.626466134 378.428393375
603.385288844 603.629345158 378.428734147
603.463501186 603.637794341 378.429064442
603.542026801 603.652390525 378.429383177
603.621165339 603.679013454 378.429679291
603.700514458 603.709768391 378.429967633
603.780495321 603.75291935 378.43023266
603.86060858 603.798668177 378.430492802
603.941407891 603.857878679 378.430727624
604.022240837 603.917749147 378.430961204
604.103497572 603.985935183 378.431179145
604.184754308 604.054121218 378.431397086
604.287211473 604.538300531 378.430832612
585.464678134 605.934791101 378.265758483
585.517116473 605.437504708 378.267039983
585.57265309 605.001012488 378.26820714
585.648500638 604.963059854 378.268624709
585.724354393 604.92522901 378.26904205
585.800342629 604.890036935 378.269454428
585.876330864 604.85484486 378.269866805
585.951752672 604.808538384 378.270300087
586.027148337 604.761718937 378.270734334
586.102607126 604.716138094 378.271166251
586.178075544 604.670746191 378.271597813
586.254428243 604.642705588 378.27199674
586.33103121 604.61957573 378.27238643
586.407903273 604.601726053 378.27276619
586.48489557 604.586235606 378.273141512
586.561759252 604.56822147 378.27352158
586.638538236 604.548545393 378.273904775
586.715258571 604.527718533 378.274290134
586.79192361 604.505806648 378.274677534
586.868832546 604.488680487 378.275055932
586.946069481 604.477990299 378.275422226
587.023426725 604.469660809 378.27578408
587.101019357 604.465950077 378.276137246
587.178669914 604.463375952 378.276488275
587.256494248 604.464211648 378.27683289
587.334638906 604.471332753 378.277165684
587.414443436 604.511023707 378.277437219
587.49434009 604.552522339 378.277705354
587.575397526 604.616797729 378.27793065
587.656454961 604.681073118 378.278155946
587.737949816 604.753931514 378.278365098
587.819451199 604.826918014 378.27857401
587.921215671 605.297505357 378.278035101
599.102926286 604.927427716 378.328582108
599.154014742 604.403654 378.329913426
599.220783649 604.187560946 378.330666048
599.293632731 604.09077264 378.331194278
599.367082079 604.005762687 378.331700355
599.440880417 603.927600614 378.332193552
599.515246137 603.86057165 378.332665809
599.59008723 603.802870425 378.333120523
599.665349291 603.753429418 378.3335597
599.741113799 603.713847379 378.333980334
599.817382579 603.684160121 378.334382358
599.894518706 603.671491888 378.334752372
599.971799448 603.661661266 378.335117049
600.049453142 603.659148694 378.335467962
600.127153092 603.657543753 378.335817168
600.20504874 603.659778791 378.336159151
600.282940176 603.661931173 378.33650129
600.360794904 603.663363273 378.336844784
600.438648834 603.664779713 378.337188307
600.516449289 603.665146882 378.337533804
600.594249745 603.665514051 378.3378793
600.672093755 603.666735857 378.338223189
600.749941223 603.668025491 378.338566951
600.827752174 603.668598613 378.33891206
600.905556079 603.66903346 378.339257429
600.983347143 603.669216355 378.339603273
601.061133927 603.669315266 378.339949274
601.138903693 603.669080248 378.340295903
601.216664761 603.668674556 378.340642853
601.29442576 603.668267516 378.340989806
601.372186708 603.667859473 378.341336761
601.449943532 603.667370512 378.341683867
601.527695982 603.666795729 378.342031136
601.605445971 603.666172644 378.342378495
601.683192222 603.665476215 378.342725992
601.760933266 603.66467762 378.343073681
601.838662657 603.663650371 378.3434218
601.916390599 603.662594682 378.343769973
601.994113419 603.661438503 378.344118335
602.071835791 603.660273515 378.344466713
602.149555219 603.65905077 378.3448152
602.22727438 603.657822791 378.345163697
602.304987761 603.656481398 378.345512407
602.382701143 603.655140004 378.345861117
602.460392817 603.653372681 378.346210628
602.53808349 603.6515857 378.346560176
602.615772421 603.649764544 378.346909789
602.693461086 603.647938176 378.347259411
602.771132891 603.645780969 378.347609656
602.848799924 603.64353013 378.347960076
602.926452843 603.641002367 378.348311018
603.004099458 603.638350872 378.348662192
603.081715379 603.635097126 378.349014499
603.159311088 603.631446774 378.349367552
603.236981324 603.629258783 378.349717854
603.314721828 603.628449589 378.350065563
603.392710761 603.632515069 378.350404104
603.471033791 603.643136145 378.350730315
603.549623989 603.658999585 378.351046665
603.628736908 603.68511982 378.351343725
603.708060919 603.715382078 378.351632994
603.788018204 603.758070399 378.351898891
603.868102475 603.80325044 378.352160102
603.948844768 603.861342118 378.352397029
604.029626161 603.920201018 378.352632512
604.110900217 603.98872693 378.352849813
604.192174274 604.057252842 378.353067115
604.294543863 604.539713739 378.352505873
585.471946145 605.934941075 378.187434121
585.524538344 605.440673699 378.188709942
585.580200004 605.006635075 378.189872484
585.655983692 604.967429379 378.19029241
585.731777272 604.928417793 378.190711972
585.807785189 604.893611905 378.191123623
585.883793106 604.858806018 378.191535274
585.959324431 604.814648477 378.191964514
586.03483376 604.770059322 378.192394566
586.11028054 604.724242841 378.192826926
586.185717778 604.678239141 378.193259639
586.26198256 604.648473433 378.19366181
586.338481552 604.623303384 378.194055338
586.415321966 604.604832702 378.194436266
586.492314931 604.589355354 378.194811563
586.569226717 604.57228512 378.195189857
586.646085044 604.554165913 378.195570123
586.722884201 604.534885661 378.195952573
586.799627567 604.51451071 378.196337082
586.876599038 604.498611599 378.196713173
586.953877269 604.48873172 378.197077942
587.031248961 604.48068573 378.197439263
587.108803512 604.476227781 378.197793835
587.186417449 604.472935101 378.198146215
587.264209544 604.473138229 378.19849202
587.342319206 604.479572618 378.198826105
587.422074438 604.518296265 378.199099459
587.501937747 604.559140606 378.199368825
587.583162836 604.62670568 378.199587934
587.664387925 604.694270755 378.199807042
587.745927896 604.768014418 378.20001453
587.827472567 604.841850298 378.200221844
587.928901377 605.305851288 378.199695323
599.110050251 604.924751219 378.250263061
599.161002574 604.398306324 378.251599403
599.227737415 604.181544827 378.252353282
599.300592008 604.084864647 378.252881309
599.374057703 604.000175473 378.253386782
599.447878691 603.922457815 378.253879143
599.522261769 603.85576947 378.25435076
599.597115789 603.798321901 378.254804997
599.672428927 603.749883098 378.255242289
599.748290043 603.712196693 378.255659358
599.824643467 603.684170323 378.256058258
599.901843661 603.672759213 378.256425908
599.97917583 603.663937702 378.256788687
600.056848356 603.661794633 378.257138905
600.134552306 603.660268194 378.257487963
600.212389211 603.661350575 378.257832114
600.290228575 603.662481205 378.258176175
600.368089367 603.664032291 378.258519445
600.445949405 603.665568572 378.258862742
600.523758891 603.666112946 378.259207906
600.601568378 603.666657321 378.259553069
600.679393814 603.667514663 378.259897644
600.757220516 603.668396842 378.260242172
600.835018048 603.668706642 378.260587776
600.91280995 603.668905982 378.260933588
600.990599452 603.669058216 378.261279489
601.068388153 603.669194749 378.26162542
601.146157427 603.66895008 378.261972067
601.223916772 603.668510573 378.262319081
601.301674386 603.668037114 378.262666158
601.379430713 603.667538409 378.263013284
601.457183866 603.666977402 378.263360526
601.534933651 603.666350318 378.263707892
601.612681131 603.665678005 378.264055344
601.69042511 603.664937013 378.264402925
601.768165471 603.664125009 378.264750639
601.845897732 603.663154071 378.265098653
601.923627511 603.662134431 378.265446758
602.00134852 603.660942714 378.265795186
602.07906969 603.659754142 378.266143609
602.15679191 603.658586186 378.266491993
602.234514254 603.65742066 378.266840372
602.31223928 603.65630776 378.267188653
602.389964306 603.655194861 378.267536933
602.467652023 603.653349877 378.26788659
602.545338018 603.651471105 378.268236311
602.623034367 603.64979551 378.26858565
602.700732296 603.648150907 378.26893493
602.77841734 603.646253489 378.269284686
602.856098738 603.64428452 378.269634576
602.933769654 603.642109884 378.269984854
603.011435887 603.639843352 378.270335304
603.089083455 603.637210567 378.270686443
603.166718731 603.634336588 378.271038035
603.244419996 603.63275746 378.271387193
603.322183481 603.632399191 378.271734054
603.400178299 603.636580126 378.272072377
603.47848422 603.646865507 378.272399219
603.557038758 603.662029234 378.272716886
603.636079721 603.686737552 378.273016601
603.715361151 603.716164299 378.273307441
603.795363983 603.759746339 378.273571658
603.875490456 603.805754449 378.273831312
603.956257613 603.864334015 378.27406732
604.037063501 603.923673549 378.2743019
604.118357393 603.992588677 378.274518469
604.199651285 604.061503804 378.274735038
604.301906402 604.541718531 378.274178022
585.479210812 605.935025437 378.109109881
585.531941712 605.443479637 378.110380584
585.58771589 605.011648817 378.111538973
585.663440447 604.971282869 378.111961081
585.739178843 604.93118845 378.11238268
585.815217061 604.896977135 378.112793212
585.891255279 604.86276582 378.113203745
585.966884058 604.820520502 378.113629389
586.042493939 604.777904384 378.11405573
586.117933449 604.73194525 378.114488359
586.193346969 604.685476165 378.114921946
586.269533162 604.654168397 378.115327018
586.345938036 604.627151568 378.11572402
586.422743618 604.607997392 378.116106232
586.499728239 604.592356317 378.116481838
586.576680721 604.576084616 378.116858629
586.653612038 604.559397624 378.117236202
586.73048962 604.541656231 378.117615758
586.807316536 604.522920688 378.117997183
586.884353871 604.508313958 378.118370843
586.961674182 604.499259771 378.11873406
587.0390619 604.491528248 378.119094789
587.116581503 604.486384544 378.11945065
587.194164282 604.48248047 378.119804181
587.271936587 604.482295287 378.120150716
587.350023765 604.488288507 378.120485631
587.429742555 604.526297089 378.12076033
587.509582126 604.566675639 378.121030572
587.590943546 604.636915778 378.121244649
587.672304965 604.707155916 378.121458727
587.753880955 604.781606343 378.121664885
587.835460147 604.856119609 378.121870925
587.936567294 605.313808945 378.121356275
599.117182099 604.922229404 378.171943723
599.168008036 604.393304574 378.17328473
599.234712402 604.175945097 378.174039734
599.30757371 604.079396675 378.174567512
599.381051309 603.994941081 378.175072546
599.454887217 603.917516201 378.175564357
599.529286422 603.851144284 378.176035379
599.604157578 603.794032956 378.176488983
599.679525038 603.746660069 378.17692427
599.755484861 603.710910482 378.177337696
599.831922251 603.684531674 378.177733498
599.909181055 603.674270605 378.178098984
599.986561006 603.666386675 378.17846
600.06425339 603.664633259 378.178809485
600.141962751 603.663212981 378.179158343
600.219743941 603.663202132 378.179504551
600.297533483 603.66335515 378.17985045
600.375395798 603.664936139 378.180193664
600.453257412 603.666503356 378.180536903
600.531072003 603.667147884 378.180881878
600.608886594 603.667792412 378.181226853
600.686694154 603.668298988 378.181572088
600.764501156 603.668794615 378.181917343
600.842286289 603.668861129 378.182263405
600.920067202 603.668844832 378.182609622
600.9978544 603.668951872 378.182955608
601.075643694 603.669100025 378.183301517
601.153411501 603.668826573 378.183648218
601.231168326 603.668337633 378.183995325
601.308922836 603.667803256 378.184342517
601.386675623 603.667235091 378.184689773
601.46442557 603.666611191 378.185037134
601.542172505 603.665928176 378.185384606
601.61991744 603.665205923 378.185732151
601.697659338 603.664424084 378.186079809
601.775399243 603.663603144 378.18642754
601.853134688 603.66269469 378.186775436
601.930866889 603.66172256 378.187123451
602.008587623 603.660525446 378.18747189
602.086308902 603.659339018 378.187820309
602.164033751 603.658222647 378.188168596
602.241759023 603.657114565 378.188516867
602.319493447 603.656186076 378.1888648
602.397227871 603.655257588 378.189212734
602.474912351 603.6533491 378.189562511
602.552594527 603.651395381 378.189912373
602.630298369 603.649866826 378.190261435
602.708005518 603.648403127 378.190610375
602.785703473 603.646759038 378.190959654
602.863398825 603.645063894 378.19130903
602.941087968 603.64324688 378.191658634
603.018774335 603.641375415 378.192008341
603.096452906 603.639350986 378.192358336
603.174126344 603.637225826 378.19270852
603.251857972 603.636242474 378.193056557
603.329644466 603.636335684 378.193402569
603.407643733 603.640603916 378.193740728
603.485929143 603.65048683 378.194068327
603.564445556 603.664902477 378.194387401
603.643413933 603.688186514 378.194689795
603.722647435 603.716672821 378.194982404
603.802676314 603.760765941 378.195245659
603.882829084 603.807290052 378.195504343
603.963623838 603.866411123 378.195739333
604.044456585 603.926277699 378.195972921
604.125768051 603.995537647 378.196188842
604.207079516 604.064797595 378.196404762
604.309243159 604.54321743 378.195851122
585.48644806 605.93457178 378.030786653
585.53919336 605.443308533 378.032056825
585.594977339 605.011670033 378.033214852
585.670681551 604.970904869 378.033637711
585.746405677 604.930530464 378.034059836
585.822561282 604.898622484 378.034466037
585.898716886 604.866714505 378.034872238
585.974344195 604.824440365 378.035297935
586.049947122 604.781687787 378.035724533
586.12541822 604.736348487 378.036155996
586.20086921 604.690614602 378.036588201
586.277053308 604.659265737 378.03699335
586.353444891 604.631988103 378.037390842
586.430189525 604.611638027 378.037775304
586.507091906 604.594383243 378.038153945
586.584024334 604.577718045 378.038531476
586.660976549 604.561441111 378.038908278
586.737929318 604.545175027 378.039285059
586.814882607 604.528919173 378.03966182
586.892013108 604.516140544 378.040032042
586.969381928 604.508038184 378.040393468
587.046798614 604.500875064 378.040753128
587.124308953 604.495549588 378.041109332
587.201905355 604.491912835 378.041462359
587.279759946 604.493342251 378.041805858
587.357927255 604.500907801 378.042137815
587.437715014 604.540269688 378.042409969
587.517609621 604.58172815 378.04267818
587.598850521 604.649603467 378.042896705
587.680091421 604.717478783 378.04311523
587.761628834 604.791172241 378.043322812
587.843170671 604.864952537 378.043530231
587.944070951 605.31858275 378.043023215
599.124378588 604.920975982 378.093622
599.17515806 604.391139413 378.094964721
599.241861398 604.173759763 378.095719763
599.314739296 604.077536877 378.096246929
599.388192359 603.992599824 378.096752869
599.461979819 603.9142243 378.097246467
599.53638504 603.847970438 378.097717267
599.611307845 603.791872563 378.098168965
599.686756253 603.746088026 378.098601265
599.762831993 603.712612958 378.099010413
599.839347779 603.68777244 378.099403322
599.916620444 603.67778335 378.099768296
599.994018285 603.670250446 378.100128652
600.071738948 603.669051918 378.100477093
600.149465278 603.667964607 378.100825325
600.227215588 603.66734783 378.101172673
600.304973753 603.666885176 378.10151973
600.382800365 603.667765598 378.101864261
600.460626403 603.668634732 378.102208814
600.538413897 603.668747577 378.102554789
600.616201391 603.668860421 378.102900764
600.6939968 603.669128567 378.103246446
600.771792837 603.669409039 378.103592106
600.849573945 603.669396574 378.103938317
600.927352172 603.669327579 378.104284634
601.005130993 603.669270245 378.104630929
601.082910013 603.669216798 378.104977216
601.160668358 603.668757691 378.105324267
601.238416137 603.668091247 378.105671708
601.316169841 603.667541051 378.10601893
601.393927949 603.667077295 378.106365989
601.471678516 603.66646555 378.106713327
601.549421083 603.665696845 378.10706096
601.627163175 603.664918805 378.10740861
601.704904544 603.664126589 378.107756287
601.782645864 603.663333404 378.108103966
601.860387074 603.66253805 378.10845165
601.938126484 603.661707403 378.108799399
602.015859539 603.66075205 378.109147383
602.093591679 603.659778735 378.109495401
602.171317818 603.658687674 378.10984364
602.249043925 603.657595974 378.110191881
602.326769325 603.656490411 378.110540147
602.404494725 603.655384849 378.110888414
602.482181885 603.653528936 378.111238092
602.559867279 603.651638392 378.111587835
602.637579235 603.650269028 378.111936597
602.715295243 603.648979167 378.11228521
602.793003408 603.647535421 378.112634113
602.870709353 603.646048124 378.112983098
602.9484186 603.644625613 378.11333196
603.026129323 603.64323205 378.113680768
603.103833632 603.641712633 378.114029813
603.181533716 603.640110335 378.114379014
603.259290238 603.639615444 378.114726132
603.337099972 603.640164681 378.115071286
603.415091921 603.644289314 378.115409716
603.493328916 603.653222238 378.115739102
603.571786992 603.666493186 378.116060328
603.650677617 603.688251571 378.116365592
603.72981934 603.714937002 378.116661588
603.809714361 603.756403573 378.116929783
603.889763015 603.800884735 378.117192309
603.970607772 603.860986956 378.117425454
604.051486773 603.921761126 378.117657335
604.132797259 603.991001858 378.117873292
604.214107745 604.060242589 378.118089249
604.316368504 604.54056801 378.117532024
585.493686036 605.934132392 377.952463399
585.546449032 605.443216388 377.953732917
585.602245449 605.011821949 377.954890485
585.677927627 604.970624432 377.955314158
585.753635712 604.929935268 377.955736875
585.829905125 604.900260432 377.956138875
585.906174538 604.870585596 377.956540876
585.98179878 604.828251278 377.956966687
586.057393246 604.785332678 377.957393597
586.132896675 604.740627768 377.957823866
586.208386218 604.695650371 377.958254649
586.284569733 604.664290057 377.958659819
586.360949655 604.636783634 377.959057741
586.437635876 604.615287384 377.959444359
586.514458955 604.596476531 377.959825927
586.591371369 604.579418631 377.960204197
586.668342616 604.563515116 377.960580296
586.745369306 604.548699527 377.960954349
586.822448273 604.534909698 377.961326472
586.899671535 604.523951232 377.961693271
586.977088851 604.516800459 377.962052907
587.05453496 604.510214671 377.962411481
587.132037404 604.504734286 377.962767976
587.209647951 604.501375083 377.963120481
587.287582806 604.504379429 377.963461018
587.365828478 604.513482594 377.963790083
587.445684744 604.554188732 377.964059709
587.52563408 604.59672108 377.9643259
587.606756097 604.662263675 377.964548812
587.687878113 604.72780627 377.964771725
587.769378393 604.800771115 377.964980677
587.850884318 604.87384674 377.965189421
587.951576474 605.32339317 377.964690087
599.13157553 604.919731445 378.01530026
599.182309097 604.388994122 378.016644675
599.249011704 604.171600145 378.017399744
599.321906389 604.075706649 378.017926291
599.395335721 603.990303946 378.018433106
599.469075893 603.911000541 378.01892845
599.543487329 603.844868624 378.01939902
599.618461176 603.789772279 378.019848834
599.693989718 603.745560145 378.020278177
599.770180318 603.714338843 378.020683086
599.846773843 603.691023702 378.021073126
599.924060398 603.681307157 378.021437588
600.001475855 603.674119929 378.021797293
600.079223746 603.673455676 378.02214473
600.156966324 603.67268718 378.022492362
600.234686426 603.671477654 378.022840824
600.31241383 603.670411423 378.023189017
600.390204874 603.670593913 378.023534861
600.467995461 603.670767445 378.023880722
600.545755461 603.670340797 378.024227711
600.623515461 603.669914148 378.024574701
600.701299107 603.669951488 378.024920818
600.77908463 603.670025653 378.025266865
600.856861768 603.669935303 378.025613222
600.934637289 603.669813204 378.025959639
601.012407783 603.669592476 378.026306242
601.090176602 603.66933887 378.026652906
601.167925531 603.668694988 378.027000304
601.245664294 603.667851631 378.027348077
601.323417154 603.667284891 378.02769533
601.401180497 603.66692384 378.028042197
601.478931582 603.666322278 378.028389515
601.556669668 603.665465628 378.028737314
601.634408805 603.664629619 378.029085073
601.71214954 603.663824955 378.029432774
601.789892225 603.663058559 378.029780403
601.867639275 603.662377811 378.03012787
601.945385886 603.661688451 378.030475354
602.023130947 603.660968659 378.030822895
602.100873682 603.660203241 378.031170522
602.178601173 603.659138722 378.031518711
602.256328188 603.658064837 378.031866918
602.334044861 603.656788034 378.032215507
602.411761534 603.655511231 378.032564095
602.489451567 603.653711698 378.032913667
602.56714037 603.651888038 378.033263284
602.644860326 603.650675661 378.033611752
602.722585035 603.64955653 378.033960044
602.800303409 603.648313103 378.034308569
602.87801999 603.647034498 378.034657162
602.955749197 603.64600364 378.035005288
603.033484046 603.645083479 378.035353205
603.111213922 603.64406575 378.035701307
603.188940524 603.642983769 378.036049529
603.266721758 603.642973762 378.036395735
603.3445545 603.643974473 378.03674004
603.422538963 603.647952211 378.037078746
603.500727462 603.65593354 378.037409921
603.579127747 603.668070526 378.037733281
603.657942397 603.688338148 378.038041348
603.73699458 603.713266624 378.038340649
603.816759362 603.752177666 378.038613651
603.896706626 603.794669357 378.038879918
603.977599479 603.855715314 378.039111288
604.058522958 603.917362227 378.039341528
604.139832335 603.986581179 378.039557526
604.221141711 604.055800132 378.039773523
604.323496877 604.537978014 378.039212814
585.500956736 605.934335138 377.874138937
585.553885784 605.446677382 377.875402327
585.6098133 605.017855364 377.876555057
585.685397447 604.97473429 377.876982347
585.761009746 604.932165602 377.877408599
585.837231992 604.901565274 377.87781234
585.913454239 604.870964945 377.878216082
585.989003505 604.827159439 377.87864466
586.06452171 604.782744464 377.879074384
586.140090855 604.73932902 377.879502228
586.21566777 604.696066047 377.879929786
586.291918697 604.666028479 377.880332469
586.368360381 604.63973395 377.880728111
586.44510223 604.619329225 377.881112677
586.521978196 604.601556114 377.881492292
586.598872421 604.584141313 377.881871233
586.675778673 604.566962471 377.882249731
586.752822379 604.552480763 377.882623156
586.829995686 604.540542068 377.882991798
586.907293504 604.531046524 377.883355845
586.984758768 604.5248366 377.883713712
587.062254774 604.519229889 377.884070444
587.139810928 604.514803378 377.884424957
587.217459079 604.512182047 377.884776074
587.295383224 604.514976251 377.885117006
587.373627642 604.524054817 377.885446118
587.453531653 604.565697805 377.885713981
587.533521896 604.60903281 377.885978663
587.614598647 604.673687223 377.886203246
587.695675399 604.738341636 377.886427829
587.777203575 604.811853863 377.886635752
587.858738489 604.885498296 377.886843426
587.959165967 605.329851224 377.886353859
599.138792849 604.918886727 377.936977768
599.189505702 604.38774297 377.938322947
599.256220986 604.170597731 377.939077549
599.329141295 604.07520702 377.93960315
599.402583154 603.990050141 377.940109503
599.476328241 603.910843166 377.940604665
599.550754813 603.845008248 377.941074677
599.62575236 603.790376944 377.941523616
599.701324464 603.747019567 377.941951351
599.77758233 603.717118167 377.942353778
599.854223975 603.694747252 377.942742041
599.931525721 603.685328773 377.943105943
600.008946525 603.678246443 377.943465451
600.086674373 603.677188917 377.943813627
600.164400743 603.676102392 377.944161858
600.242120861 603.67489318 377.944510319
600.31984524 603.673767592 377.944858624
600.397606757 603.673370721 377.945205557
600.475367585 603.67296031 377.945552516
600.553082179 603.671642723 377.945901182
600.630796774 603.670325135 377.946249847
600.708586142 603.670474752 377.946595753
600.786381445 603.670740813 377.946941439
600.864157121 603.670621761 377.94728785
600.941929009 603.67042839 377.947634401
601.019693423 603.670088348 377.947981228
601.097455345 603.669699415 377.948328147
601.175196873 603.668910323 377.948675818
601.252927978 603.667916707 377.949023874
601.330678332 603.667300784 377.94937122
601.408442999 603.666965712 377.949718037
601.486190081 603.666285588 377.950065503
601.563918512 603.6652395 377.950413658
601.641649692 603.664247349 377.950761711
601.719385045 603.663337102 377.951109611
601.79712688 603.662554023 377.951457271
601.87488322 603.662055561 377.951804395
601.952636584 603.6614987 377.95215163
602.030379432 603.660735498 377.952499252
602.1081208 603.659943258 377.95284693
602.185852467 603.658960663 377.953194965
602.263583677 603.657969115 377.953543017
602.341305003 603.656783604 377.953891434
602.419026329 603.655598093 377.954239851
602.496727957 603.654026089 377.954588995
602.574428677 603.652436247 377.954938172
602.652151579 603.651281667 377.955286531
602.729877864 603.650193484 377.955634765
602.807606388 603.649149211 377.955982916
602.885335545 603.648117367 377.956331044
602.963078176 603.647349908 377.956678675
603.040826827 603.646700579 377.957026083
603.118574653 603.646035051 377.957373522
603.196321935 603.645358855 377.957720981
603.274119673 603.645672709 377.958066578
603.351964985 603.646920039 377.958410419
603.429934402 603.650602571 377.95874968
603.508070721 603.657560032 377.959082781
603.586437842 603.669046259 377.959407365
603.66525653 603.689393114 377.959715283
603.7443199 603.714541098 377.960014171
603.824117315 603.754092473 377.960285968
603.904085834 603.797001227 377.960551451
603.984940981 603.857307309 377.960784213
604.065829012 603.918258668 377.961015761
604.147131401 603.987340509 377.961232017
604.228433789 604.05642235 377.961448272
604.330761531 604.538062127 377.960888575
585.508227437 605.934537883 377.795814474
585.561322536 605.450138376 377.797071736
585.617381152 605.023888779 377.798219628
585.692867268 604.978844149 377.798650536
585.768383779 604.934395937 377.799080323
585.844558859 604.902870116 377.799485805
585.92073394 604.871344295 377.799891287
585.996208229 604.8260676 377.800322632
586.071650174 604.78015625 377.800755171
586.147285034 604.738030272 377.80118059
586.222949322 604.696481724 377.801604923
586.29926766 604.667766901 377.802005118
586.375771107 604.642684265 377.802398482
586.452568584 604.623371065 377.802780994
586.529497436 604.606635697 377.803158657
586.606373473 604.588863994 377.80353827
586.683214729 604.570409826 377.803919166
586.760275451 604.556261999 377.804291963
586.837543098 604.546174437 377.804657123
586.914915472 604.538141817 377.805018419
586.992428685 604.53287274 377.805374516
587.069974588 604.528245106 377.805729407
587.147584451 604.524872471 377.806081938
587.225270206 604.52298901 377.806431667
587.303183642 604.525573072 377.806772994
587.381426806 604.53462704 377.807102152
587.461378563 604.577206879 377.807368254
587.541409711 604.621344541 377.807631426
587.622441198 604.685110771 377.807857679
587.703472685 604.748877002 377.808083933
587.785028758 604.82293661 377.808290826
587.86659266 604.897149851 377.80849743
587.966755459 605.336309279 377.808017632
599.146010167 604.918042008 377.858655275
599.196702307 604.386491819 377.86000122
599.263430268 604.169595318 377.860755353
599.3363762 604.074707391 377.861280009
599.409830587 603.989796337 377.861785899
599.483580589 603.910685792 377.86228088
599.558022297 603.845147871 377.862750333
599.633043543 603.790981609 377.863198398
599.708659209 603.748478989 377.863624526
599.784984342 603.71989749 377.86402447
599.861674108 603.698470803 377.864410957
599.938991044 603.689350389 377.864774298
600.016417194 603.682372956 377.865133609
600.094124999 603.680922157 377.865482525
600.171835162 603.679517603 377.865831353
600.249555296 603.678308706 377.866179814
