VERSION 0.7
FIELDS x y z
SIZE 4 4 4
TYPE F F F
COUNT 1 1 1
WIDTH 2022
HEIGHT 1
VIEWPOINT 0.0 0.0 0.0 1.0 0.0 0.0 0.0
POINTS 2022
DATA ascii
478.402 603.396 357.223
478.482 603.586 357.23
478.561 603.776 357.236
478.639 604.088 357.245
478.717 604.405 357.254
471.801 604.143 356.928
471.888 603.656 356.922
471.972 603.349 356.918
472.054 603.316 356.921
472.136 603.287 356.923
472.218 603.269 356.925
472.299 603.253 356.928
472.381 603.242 356.93
472.463 603.231 356.933
472.544 603.224 356.935
472.626 603.216 356.938
472.707 603.209 356.941
472.789 603.203 356.943
472.87 603.198 356.946
472.952 603.194 356.949
473.033 603.193 356.952
473.115 603.193 356.954
473.196 603.194 356.957
473.278 603.195 356.96
473.359 603.198 356.963
473.441 603.201 356.966
473.522 603.205 356.969
473.604 603.21 356.972
473.685 603.213 356.974
473.767 603.214 356.977
473.848 603.214 356.98
473.93 603.212 356.983
474.011 603.21 356.986
474.093 603.208 356.988
474.174 603.206 356.991
474.256 603.202 356.994
474.337 603.198 356.996
474.419 603.195 356.999
474.5 603.191 357.002
474.582 603.187 357.005
474.663 603.182 357.007
474.745 603.175 357.01
474.826 603.169 357.013
474.908 603.16 357.015
474.99 603.15 357.018
475.071 603.143 357.021
475.153 603.137 357.023
475.234 603.132 357.026
475.316 603.128 357.029
475.397 603.125 357.031
475.479 603.124 357.034
475.56 603.125 357.037
475.642 603.128 357.04
475.723 603.133 357.043
475.805 603.14 357.046
475.886 603.147 357.049
475.967 603.156 357.052
476.049 603.163 357.055
476.13 603.167 357.057
476.212 603.172 357.06
476.293 603.173 357.063
476.375 603.176 357.066
476.456 603.182 357.069
476.538 603.189 357.072
476.619 603.2 357.075
476.7 603.212 357.078
476.782 603.228 357.081
476.863 603.246 357.084
476.944 603.261 357.087
477.026 603.277 357.09
477.107 603.291 357.093
477.188 603.305 357.096
477.27 603.318 357.099
477.351 603.33 357.103
477.432 603.34 357.106
477.514 603.35 357.109
477.595 603.358 357.111
477.677 603.365 357.114
477.758 603.372 357.117
477.839 603.379 357.12
477.921 603.385 357.123
478.002 603.389 357.126
478.084 603.393 357.129
478.165 603.396 357.132
478.247 603.4 357.135
478.328 603.405 357.138
478.409 603.428 357.141
478.486 603.847 357.152
478.564 604.266 357.163
478.644 604.36 357.167
478.725 604.438 357.172
471.808 604.223 356.847
471.893 603.896 356.843
471.977 603.627 356.841
472.06 603.445 356.84
472.143 603.315 356.84
472.225 603.298 356.843
472.307 603.282 356.845
472.388 603.271 356.848
472.47 603.261 356.851
472.551 603.253 356.853
472.633 603.246 356.856
472.715 603.239 356.858
472.796 603.233 356.861
472.878 603.227 356.864
472.959 603.221 356.866
473.041 603.218 356.869
473.122 603.215 356.872
473.204 603.214 356.875
473.285 603.214 356.878
473.367 603.215 356.88
473.448 603.216 356.883
473.53 603.22 356.886
473.611 603.225 356.889
473.693 603.23 356.892
473.774 603.233 356.895
473.855 603.235 356.898
473.937 603.235 356.9
474.018 603.236 356.903
474.1 603.236 356.906
474.181 603.235 356.909
474.263 603.231 356.911
474.345 603.227 356.914
474.426 603.223 356.917
474.508 603.22 356.92
474.589 603.214 356.922
474.671 603.208 356.925
474.752 603.2 356.928
474.834 603.192 356.93
474.915 603.181 356.933
474.997 603.17 356.935
475.079 603.161 356.938
475.16 603.153 356.941
475.242 603.147 356.943
475.323 603.143 356.946
475.405 603.141 356.949
475.486 603.141 356.952
475.568 603.144 356.954
475.649 603.149 356.957
475.731 603.158 356.96
475.812 603.17 356.963
475.893 603.181 356.966
475.975 603.193 356.969
476.056 603.204 356.972
476.138 603.21 356.975
476.219 603.215 356.978
476.3 603.217 356.981
476.382 603.219 356.984
476.463 603.225 356.987
476.545 603.232 356.99
476.626 603.242 356.993
476.708 603.253 356.996
476.789 603.268 356.999
476.87 603.284 357.002
476.952 603.298 357.005
477.033 603.311 357.008
477.114 603.323 357.011
477.196 603.335 357.014
477.277 603.346 357.017
477.358 603.356 357.02
477.44 603.365 357.023
477.521 603.373 357.026
477.603 603.379 357.029
477.684 603.386 357.032
477.765 603.392 357.035
477.847 603.4 357.038
477.928 603.406 357.041
478.01 603.41 357.044
478.091 603.448 357.047
478.171 603.606 357.053
478.251 603.743 357.058
478.332 603.747 357.061
478.413 603.765 357.064
478.491 604.1 357.074
478.569 604.434 357.083
471.814 604.337 356.766
471.897 604.242 356.767
471.98 604.025 356.766
472.066 603.624 356.761
472.151 603.342 356.758
472.232 603.325 356.76
472.314 603.31 356.763
472.396 603.3 356.766
472.477 603.29 356.768
472.559 603.283 356.771
472.64 603.277 356.773
472.722 603.27 356.776
472.803 603.264 356.779
472.885 603.257 356.782
472.966 603.251 356.784
473.048 603.246 356.787
473.13 603.241 356.79
473.211 603.238 356.792
473.293 603.235 356.795
473.374 603.234 356.798
473.456 603.234 356.801
473.537 603.237 356.803
473.619 603.242 356.806
473.7 603.247 356.809
473.781 603.251 356.812
473.863 603.256 356.815
473.944 603.259 356.818
474.026 603.263 356.821
474.107 603.264 356.824
474.189 603.264 356.826
474.27 603.26 356.829
474.352 603.257 356.832
474.433 603.253 356.835
474.515 603.248 356.837
474.596 603.241 356.84
474.678 603.235 356.843
474.76 603.225 356.845
474.841 603.216 356.848
474.923 603.204 356.85
475.004 603.191 356.853
475.086 603.181 356.856
475.168 603.171 356.858
475.249 603.166 356.861
475.331 603.161 356.864
475.412 603.16 356.866
475.494 603.162 356.869
475.575 603.167 356.872
475.657 603.176 356.875
475.738 603.189 356.878
475.819 603.206 356.881
475.901 603.223 356.884
475.982 603.238 356.887
476.063 603.251 356.89
476.145 603.258 356.893
476.226 603.264 356.896
476.308 603.266 356.899
476.389 603.268 356.902
476.47 603.274 356.905
476.552 603.279 356.908
476.633 603.289 356.911
476.715 603.299 356.914
476.796 603.311 356.917
476.877 603.323 356.92
476.959 603.335 356.923
477.04 603.347 356.926
477.121 603.357 356.929
477.203 603.367 356.932
477.284 603.376 356.935
477.366 603.384 356.938
477.447 603.39 356.941
477.529 603.395 356.944
477.61 603.401 356.946
477.691 603.407 356.949
477.773 603.413 356.952
477.854 603.421 356.955
477.936 603.427 356.958
478.017 603.432 356.961
478.098 603.521 356.966
478.175 603.907 356.976
478.253 604.242 356.985
478.334 604.243 356.988
478.416 604.25 356.991
478.496 604.348 356.996
478.577 604.446 357.0
471.986 604.246 356.687
472.071 603.893 356.683
472.155 603.603 356.68
472.238 603.456 356.68
472.321 603.339 356.681
472.403 603.329 356.683
472.484 603.32 356.686
472.566 603.314 356.689
472.648 603.309 356.691
472.729 603.303 356.694
472.811 603.298 356.697
472.892 603.291 356.699
472.974 603.285 356.702
473.055 603.279 356.705
473.137 603.273 356.707
473.218 603.268 356.71
473.3 603.264 356.713
473.381 603.261 356.715
473.463 603.259 356.718
473.544 603.261 356.721
473.626 603.265 356.724
473.707 603.27 356.727
473.789 603.276 356.73
473.87 603.281 356.733
473.952 603.287 356.736
474.033 603.292 356.738
474.115 603.294 356.741
474.196 603.294 356.744
474.278 603.291 356.747
474.359 603.287 356.75
474.441 603.283 356.752
474.522 603.278 356.755
474.604 603.271 356.758
474.685 603.264 356.76
474.767 603.254 356.763
474.849 603.245 356.765
474.93 603.232 356.768
475.012 603.219 356.771
475.093 603.209 356.773
475.175 603.199 356.776
475.257 603.193 356.778
475.338 603.189 356.781
475.42 603.189 356.784
475.501 603.192 356.787
475.582 603.2 356.79
475.664 603.213 356.793
475.745 603.23 356.796
475.826 603.251 356.799
475.908 603.271 356.802
475.989 603.289 356.805
476.07 603.304 356.809
476.152 603.312 356.811
476.233 603.319 356.814
476.315 603.32 356.817
476.396 603.322 356.82
476.477 603.327 356.823
476.559 603.333 356.826
476.64 603.341 356.829
476.722 603.349 356.832
476.802 603.483 356.837
476.882 603.627 356.843
476.963 603.657 356.846
477.044 603.664 356.849
477.126 603.672 356.852
477.207 603.679 356.855
477.289 603.684 356.858
477.37 603.69 356.861
477.452 603.694 356.864
477.533 603.697 356.867
477.614 603.701 356.869
477.696 603.705 356.872
477.777 603.71 356.875
477.859 603.716 356.878
477.94 603.721 356.881
478.022 603.724 356.884
478.102 603.803 356.888
478.18 604.149 356.898
471.992 604.341 356.606
472.075 604.224 356.607
472.159 604.029 356.606
472.244 603.658 356.601
472.329 603.367 356.598
472.41 603.359 356.601
472.492 603.351 356.604
472.573 603.346 356.606
472.655 603.342 356.609
472.736 603.337 356.612
472.818 603.332 356.614
472.899 603.327 356.617
472.981 603.322 356.62
473.063 603.316 356.622
473.144 603.309 356.625
473.226 603.303 356.628
473.307 603.297 356.63
473.389 603.293 356.633
473.47 603.289 356.636
473.552 603.29 356.639
473.633 603.293 356.642
473.715 603.297 356.644
473.796 603.304 356.647
473.878 603.31 356.65
473.959 603.318 356.653
474.04 603.323 356.656
474.122 603.325 356.659
474.203 603.325 356.662
474.285 603.322 356.664
474.366 603.318 356.667
474.448 603.313 356.67
474.53 603.308 356.673
474.611 603.302 356.675
474.693 603.295 356.678
474.774 603.286 356.681
474.856 603.277 356.683
474.937 603.265 356.686
475.019 603.252 356.688
475.101 603.242 356.691
475.182 603.232 356.693
475.264 603.227 356.696
475.345 603.223 356.699
475.427 603.225 356.702
475.508 603.229 356.705
475.59 603.24 356.708
475.671 603.257 356.711
475.752 603.278 356.714
475.833 603.302 356.717
475.915 603.324 356.72
475.996 603.343 356.724
476.077 603.36 356.727
476.159 603.369 356.73
476.24 603.377 356.733
476.322 603.379 356.736
476.403 603.381 356.738
476.484 603.385 356.741
476.566 603.389 356.744
476.647 603.396 356.747
476.729 603.404 356.75
476.807 603.746 356.759
476.884 604.115 356.769
476.965 604.178 356.773
477.046 604.181 356.776
477.128 604.184 356.779
477.209 604.187 356.782
477.291 604.189 356.785
477.372 604.192 356.788
477.454 604.194 356.791
477.535 604.195 356.793
477.617 604.197 356.796
477.698 604.199 356.799
477.78 604.201 356.802
477.861 604.203 356.805
477.943 604.206 356.808
478.024 604.207 356.81
478.105 604.234 356.814
478.186 604.35 356.819
472.163 604.278 356.528
472.249 603.911 356.523
472.333 603.624 356.52
472.415 603.619 356.523
472.497 603.613 356.526
472.578 603.611 356.529
472.66 603.608 356.531
472.741 603.605 356.534
472.823 603.602 356.537
472.904 603.598 356.539
472.986 603.595 356.542
473.068 603.49 356.543
473.151 603.369 356.543
473.233 603.337 356.546
473.314 603.33 356.548
473.396 603.325 356.551
473.478 603.321 356.554
473.559 603.32 356.556
473.641 603.323 356.559
473.722 603.328 356.562
473.803 603.335 356.565
473.884 603.391 356.569
473.964 603.514 356.574
474.045 603.596 356.579
474.127 603.598 356.581
474.208 603.57 356.584
474.291 603.452 356.584
474.374 603.354 356.585
474.455 603.349 356.588
474.537 603.344 356.59
474.618 603.338 356.593
474.7 603.332 356.596
474.781 603.323 356.598
474.863 603.315 356.601
474.945 603.303 356.604
475.026 603.29 356.606
475.108 603.28 356.609
475.189 603.271 356.611
475.271 603.266 356.614
475.352 603.264 356.617
475.434 603.267 356.62
475.515 603.273 356.623
475.597 603.287 356.626
475.678 603.308 356.629
475.759 603.381 356.633
475.839 603.518 356.639
475.919 603.61 356.643
476.001 603.625 356.646
476.082 603.638 356.649
476.163 603.646 356.652
476.245 603.653 356.655
476.326 603.654 356.658
476.408 603.656 356.661
476.489 603.659 356.664
476.571 603.662 356.667
476.652 603.667 356.669
476.734 603.672 356.672
476.811 604.012 356.682
476.889 604.379 356.692
472.17 604.351 356.446
472.253 604.216 356.446
472.336 604.11 356.447
472.417 604.109 356.45
472.499 604.107 356.452
472.58 604.107 356.455
472.662 604.107 356.458
472.743 604.106 356.461
472.825 604.105 356.464
472.906 604.104 356.466
472.988 604.104 356.469
473.073 603.801 356.466
473.158 603.452 356.462
473.24 603.369 356.463
473.322 603.363 356.466
473.403 603.358 356.469
473.485 603.353 356.471
473.566 603.354 356.474
473.648 603.357 356.477
473.729 603.362 356.48
473.811 603.369 356.483
473.89 603.524 356.489
473.968 603.877 356.498
474.047 604.111 356.506
474.129 604.112 356.508
474.211 604.027 356.51
474.296 603.682 356.506
474.381 603.393 356.503
474.462 603.389 356.506
474.544 603.385 356.508
474.625 603.38 356.511
474.707 603.374 356.514
474.789 603.366 356.516
474.87 603.357 356.519
474.952 603.346 356.521
475.033 603.334 356.524
475.115 603.325 356.527
475.197 603.316 356.529
475.278 603.313 356.532
475.36 603.311 356.535
475.441 603.316 356.538
475.522 603.325 356.541
475.604 603.342 356.544
475.685 603.364 356.547
475.765 603.54 356.553
475.842 603.898 356.563
475.921 604.128 356.57
476.003 604.134 356.573
476.084 604.139 356.576
476.166 604.143 356.579
476.247 604.146 356.582
476.329 604.147 356.585
476.41 604.148 356.587
476.492 604.149 356.59
476.573 604.151 356.593
476.655 604.154 356.596
476.736 604.156 356.599
476.816 604.282 356.604
476.896 604.418 356.61
473.077 604.067 356.388
473.163 603.68 356.384
473.245 603.59 356.385
473.327 603.585 356.387
473.409 603.581 356.39
473.49 603.578 356.393
473.572 603.578 356.396
473.653 603.581 356.398
473.734 603.586 356.401
473.816 603.592 356.404
473.896 603.763 356.41
473.973 604.154 356.421
474.216 604.319 356.432
474.301 603.936 356.428
474.386 603.614 356.424
474.468 603.612 356.427
474.549 603.61 356.43
474.631 603.606 356.432
474.712 603.601 356.435
474.794 603.595 356.438
474.875 603.589 356.441
474.957 603.58 356.443
475.039 603.571 356.446
475.12 603.564 356.448
475.202 603.558 356.451
475.283 603.555 356.454
475.365 603.554 356.457
475.446 603.559 356.46
475.527 603.568 356.462
475.609 603.583 356.466
475.69 603.602 356.469
475.77 603.791 356.475
475.847 604.184 356.486
473.083 604.27 356.309
473.166 604.115 356.309
473.248 604.079 356.311
473.329 604.077 356.314
473.411 604.076 356.317
473.492 604.076 356.32
473.574 604.076 356.322
473.655 604.078 356.325
473.737 604.08 356.328
473.818 604.083 356.331
473.899 604.152 356.335
473.979 604.31 356.341
474.223 604.378 356.351
474.306 604.224 356.35
474.389 604.095 356.351
474.47 604.095 356.354
474.552 604.095 356.356
474.633 604.093 356.359
474.715 604.092 356.362
474.796 604.09 356.365
474.878 604.088 356.367
474.959 604.085 356.37
475.041 604.082 356.373
475.122 604.079 356.376
475.204 604.077 356.378
475.285 604.077 356.381
475.367 604.077 356.384
475.448 604.08 356.387
475.53 604.084 356.39
475.611 604.09 356.393
475.692 604.098 356.396
475.773 604.175 356.4
475.853 604.333 356.406
473.606 604.674 366.06
473.688 604.589 366.061
473.77 604.546 366.064
473.852 604.545 366.066
473.933 604.545 366.069
474.015 604.544 366.072
474.096 604.544 366.075
474.177 604.545 366.078
474.259 604.545 366.081
474.34 604.545 366.084
474.422 604.546 366.086
474.503 604.546 366.089
474.585 604.547 366.092
474.666 604.548 366.095
474.748 604.549 366.098
474.829 604.55 366.101
474.911 604.552 366.104
474.992 604.553 366.107
475.074 604.554 366.11
475.155 604.556 366.113
475.237 604.558 366.115
475.318 604.56 366.118
475.4 604.562 366.121
475.481 604.616 366.125
475.561 604.703 366.13
473.615 604.543 365.975
473.7 604.227 365.972
473.783 604.063 365.972
473.865 604.058 365.975
473.946 604.054 365.977
474.028 604.051 365.98
474.109 604.048 365.983
474.191 604.047 365.986
474.272 604.046 365.989
474.354 604.045 365.992
474.435 604.044 365.994
474.517 604.044 365.997
474.598 604.044 366.0
474.68 604.046 366.003
474.761 604.047 366.006
474.843 604.049 366.009
474.924 604.051 366.012
475.006 604.054 366.015
475.087 604.056 366.018
475.169 604.06 366.02
475.25 604.065 366.023
475.332 604.07 366.026
475.413 604.076 366.029
475.492 604.271 366.036
475.57 604.591 366.045
472.969 604.658 365.871
473.051 604.593 365.873
473.133 604.582 365.875
473.215 604.581 365.878
473.296 604.58 365.881
473.378 604.58 365.884
473.459 604.579 365.887
473.541 604.578 365.89
473.625 604.338 365.888
473.711 603.921 365.883
473.795 603.702 365.882
473.877 603.694 365.885
473.958 603.687 365.888
474.04 603.682 365.89
474.121 603.677 365.893
474.203 603.675 365.896
474.284 603.673 365.899
474.366 603.67 365.902
474.447 603.668 365.905
474.529 603.668 365.907
474.61 603.668 365.91
474.692 603.67 365.913
474.773 603.672 365.916
474.855 603.675 365.919
474.936 603.677 365.922
475.018 603.68 365.925
475.099 603.683 365.928
475.181 603.689 365.931
475.262 603.696 365.934
475.343 603.704 365.937
475.425 603.713 365.94
475.503 603.971 365.947
475.58 604.393 365.958
475.659 604.599 365.965
475.741 604.601 365.968
475.822 604.603 365.971
475.904 604.604 365.973
475.985 604.606 365.976
476.066 604.608 365.979
476.148 604.609 365.982
476.229 604.61 365.985
476.311 604.612 365.988
476.392 604.613 365.991
476.474 604.614 365.994
476.555 604.616 365.997
476.637 604.617 366.0
476.718 604.619 366.002
476.8 604.621 366.005
476.881 604.623 366.008
476.963 604.625 366.011
477.043 604.679 366.015
477.124 604.746 366.019
472.979 604.444 365.784
473.064 604.147 365.782
473.146 604.093 365.784
473.228 604.086 365.786
473.31 604.079 365.789
473.391 604.072 365.792
473.473 604.066 365.795
473.554 604.059 365.797
473.637 603.946 365.798
473.721 603.754 365.797
473.803 603.651 365.798
473.885 603.643 365.801
473.967 603.635 365.804
474.048 603.63 365.807
474.13 603.625 365.809
474.211 603.622 365.812
474.293 603.619 365.815
474.374 603.616 365.818
474.456 603.614 365.821
474.537 603.614 365.824
474.619 603.614 365.826
474.7 603.617 365.829
474.782 603.619 365.832
474.863 603.621 365.835
474.945 603.622 365.838
475.026 603.625 365.841
475.108 603.629 365.844
475.189 603.636 365.847
475.27 603.644 365.85
475.352 603.653 365.853
475.433 603.663 365.856
475.513 603.783 365.861
475.592 603.976 365.867
475.673 604.072 365.872
475.754 604.077 365.875
475.836 604.082 365.878
475.917 604.087 365.881
475.999 604.092 365.884
476.08 604.096 365.887
476.161 604.099 365.89
476.243 604.102 365.893
476.324 604.105 365.896
476.406 604.107 365.899
476.487 604.11 365.902
476.569 604.114 365.904
476.65 604.118 365.907
476.732 604.123 365.91
476.813 604.127 365.913
476.895 604.133 365.916
476.976 604.138 365.919
477.055 604.382 365.927
477.133 604.682 365.935
472.251 604.701 365.68
472.333 604.657 365.682
472.415 604.62 365.684
472.496 604.62 365.687
472.578 604.619 365.69
472.659 604.619 365.693
472.741 604.619 365.696
472.822 604.619 365.699
472.904 604.619 365.702
472.99 604.211 365.697
473.076 603.771 365.692
473.159 603.689 365.693
473.24 603.677 365.696
473.322 603.665 365.698
473.404 603.653 365.701
473.485 603.642 365.704
473.567 603.63 365.706
473.649 603.619 365.709
473.73 603.608 365.712
473.812 603.598 365.714
473.893 603.589 365.717
473.975 603.581 365.72
474.056 603.576 365.723
474.138 603.571 365.725
474.22 603.567 365.728
474.301 603.563 365.731
474.383 603.56 365.734
474.464 603.558 365.737
474.546 603.558 365.74
474.627 603.558 365.742
474.709 603.561 365.745
474.79 603.564 365.748
474.872 603.565 365.751
474.953 603.566 365.754
475.034 603.569 365.757
475.116 603.572 365.76
475.197 603.58 365.763
475.279 603.589 365.766
475.36 603.598 365.769
475.441 603.608 365.772
475.523 603.617 365.775
475.604 603.625 365.778
475.686 603.634 365.781
475.767 603.641 365.784
475.848 603.648 365.787
475.93 603.656 365.79
476.011 603.662 365.793
476.093 603.668 365.796
476.174 603.672 365.799
476.256 603.676 365.802
476.337 603.68 365.805
476.418 603.684 365.808
476.5 603.688 365.811
476.581 603.694 365.814
476.663 603.699 365.817
476.744 603.706 365.82
476.826 603.712 365.823
476.907 603.721 365.826
476.988 603.729 365.829
477.066 604.09 365.838
477.142 604.533 365.849
477.222 604.659 365.855
477.304 604.662 365.857
477.385 604.665 365.86
477.466 604.669 365.863
477.548 604.698 365.867
477.629 604.747 365.871
472.259 604.638 365.596
472.344 604.359 365.594
472.428 604.132 365.593
472.509 604.125 365.595
472.591 604.118 365.598
472.673 604.113 365.601
472.754 604.108 365.604
472.836 604.101 365.606
472.917 604.095 365.609
473.001 603.895 365.608
473.085 603.68 365.607
473.167 603.635 365.609
473.249 603.622 365.612
473.33 603.609 365.615
473.412 603.596 365.617
473.494 603.583 365.62
473.575 603.57 365.622
473.657 603.558 365.625
473.739 603.546 365.628
473.82 603.535 365.63
473.902 603.526 365.633
473.983 603.518 365.636
474.065 603.512 365.639
474.146 603.506 365.641
474.228 603.502 365.644
474.31 603.499 365.647
474.391 603.497 365.65
474.473 603.495 365.653
474.554 603.495 365.656
474.636 603.496 365.658
474.717 603.498 365.661
474.798 603.5 365.664
474.88 603.499 365.667
474.961 603.499 365.67
475.043 603.502 365.673
475.124 603.505 365.676
475.206 603.512 365.679
475.287 603.52 365.682
475.369 603.527 365.685
475.45 603.535 365.688
475.531 603.543 365.691
475.613 603.551 365.694
475.694 603.558 365.697
475.776 603.566 365.7
475.857 603.572 365.703
475.938 603.578 365.706
476.02 603.583 365.709
476.101 603.586 365.712
476.183 603.589 365.715
476.264 603.591 365.718
476.346 603.594 365.72
476.427 603.597 365.723
476.509 603.601 365.726
476.59 603.605 365.729
476.671 603.61 365.732
476.753 603.615 365.735
476.834 603.621 365.738
476.916 603.629 365.741
476.997 603.638 365.744
477.077 603.815 365.75
477.156 604.032 365.757
477.236 604.102 365.761
477.318 604.115 365.764
477.399 604.131 365.768
477.48 604.15 365.771
477.56 604.319 365.777
477.638 604.614 365.785
471.451 604.69 365.486
471.533 604.666 365.488
471.615 604.657 365.491
471.696 604.656 365.493
471.778 604.656 365.496
471.859 604.656 365.499
471.941 604.656 365.502
472.022 604.656 365.505
472.104 604.656 365.508
472.185 604.657 365.511
472.268 604.527 365.511
472.355 604.065 365.506
472.441 603.688 365.502
472.522 603.675 365.504
472.604 603.663 365.507
472.686 603.653 365.51
472.767 603.644 365.512
472.849 603.632 365.515
472.93 603.62 365.518
473.012 603.606 365.52
473.094 603.592 365.523
473.175 603.578 365.525
473.257 603.565 365.528
473.339 603.55 365.531
473.42 603.536 365.533
473.502 603.522 365.536
473.584 603.508 365.538
473.665 603.495 365.541
473.747 603.481 365.544
473.829 603.47 365.546
473.91 603.461 365.549
473.992 603.453 365.552
474.073 603.446 365.555
474.155 603.441 365.557
474.236 603.437 365.56
474.318 603.433 365.563
474.399 603.431 365.566
474.481 603.43 365.569
474.562 603.431 365.571
474.644 603.432 365.574
474.725 603.432 365.577
474.807 603.433 365.58
474.888 603.432 365.583
474.97 603.43 365.586
475.051 603.433 365.589
475.133 603.436 365.592
475.214 603.442 365.595
475.296 603.448 365.598
475.377 603.454 365.601
475.459 603.46 365.604
475.54 603.467 365.607
475.621 603.474 365.61
475.703 603.481 365.613
475.784 603.488 365.616
475.866 603.494 365.619
475.947 603.498 365.621
476.029 603.502 365.624
476.11 603.503 365.627
476.191 603.504 365.63
476.273 603.505 365.633
476.354 603.506 365.636
476.436 603.509 365.639
476.517 603.512 365.642
476.599 603.516 365.645
476.68 603.519 365.648
476.762 603.524 365.651
476.843 603.529 365.654
476.924 603.537 365.657
477.006 603.546 365.66
477.087 603.56 365.663
477.169 603.574 365.666
477.25 603.594 365.669
477.331 603.616 365.672
477.412 603.645 365.676
477.493 603.677 365.679
477.572 603.958 365.687
477.647 604.449 365.699
477.726 604.717 365.707
477.807 604.721 365.71
477.889 604.734 365.713
477.97 604.761 365.716
471.461 604.524 365.4
471.545 604.267 365.398
471.628 604.165 365.399
471.71 604.153 365.401
471.791 604.143 365.404
471.873 604.133 365.407
471.954 604.125 365.409
472.036 604.119 365.412
472.118 604.112 365.415
472.199 604.106 365.418
472.281 604.036 365.419
472.366 603.802 365.418
472.449 603.612 365.417
472.531 603.601 365.42
472.613 603.591 365.423
472.694 603.582 365.425
472.776 603.572 365.428
472.857 603.559 365.431
472.939 603.545 365.433
473.021 603.531 365.436
473.102 603.516 365.438
473.184 603.501 365.441
473.266 603.486 365.444
473.347 603.471 365.446
473.429 603.455 365.449
473.511 603.44 365.451
473.592 603.425 365.454
473.674 603.412 365.457
473.756 603.399 365.459
473.837 603.388 365.462
473.919 603.38 365.465
474.0 603.373 365.467
474.082 603.367 365.47
474.164 603.362 365.473
474.245 603.358 365.476
474.327 603.355 365.479
474.408 603.354 365.481
474.49 603.353 365.484
474.571 603.352 365.487
474.653 603.352 365.49
474.734 603.35 365.493
474.816 603.348 365.496
474.897 603.347 365.498
474.979 603.346 365.501
475.06 603.348 365.504
475.142 603.35 365.507
475.223 603.354 365.51
475.304 603.358 365.513
475.386 603.363 365.516
475.467 603.368 365.519
475.549 603.373 365.522
475.63 603.379 365.525
475.712 603.385 365.528
475.793 603.39 365.531
475.874 603.395 365.534
475.956 603.398 365.537
476.037 603.401 365.54
476.119 603.402 365.543
476.2 603.403 365.545
476.282 603.404 365.548
476.363 603.406 365.551
476.445 603.409 365.554
476.526 603.412 365.557
476.608 603.416 365.56
476.689 603.419 365.563
476.77 603.425 365.566
476.852 603.43 365.569
476.933 603.439 365.572
477.015 603.449 365.575
477.096 603.463 365.578
477.177 603.479 365.581
477.259 603.499 365.585
477.34 603.521 365.588
477.421 603.55 365.591
477.502 603.582 365.595
477.582 603.742 365.6
477.66 604.009 365.608
477.74 604.169 365.614
477.821 604.201 365.618
477.901 604.32 365.623
477.979 604.588 365.63
471.141 604.704 365.308
471.222 604.7 365.311
471.304 604.699 365.314
471.385 604.7 365.317
471.471 604.354 365.314
471.558 603.874 365.308
471.641 603.682 365.307
471.723 603.659 365.309
471.805 603.638 365.312
471.886 603.621 365.314
471.968 603.605 365.317
472.05 603.591 365.32
472.131 603.577 365.322
472.213 603.565 365.325
472.295 603.553 365.328
472.376 603.544 365.33
472.458 603.535 365.333
472.539 603.527 365.336
472.621 603.519 365.338
472.703 603.51 365.341
472.784 603.5 365.344
472.866 603.485 365.346
472.948 603.471 365.349
473.029 603.456 365.352
473.111 603.44 365.354
473.193 603.424 365.357
473.274 603.407 365.359
473.356 603.391 365.362
473.438 603.374 365.364
473.519 603.358 365.367
473.601 603.342 365.37
473.683 603.328 365.372
473.764 603.316 365.375
473.846 603.306 365.378
473.927 603.299 365.38
474.009 603.293 365.383
474.091 603.287 365.386
474.172 603.283 365.389
474.254 603.279 365.391
474.335 603.276 365.394
474.417 603.276 365.397
474.498 603.275 365.4
474.58 603.273 365.403
474.661 603.271 365.406
474.743 603.267 365.408
474.824 603.263 365.411
474.906 603.262 365.414
474.987 603.262 365.417
475.069 603.263 365.42
475.15 603.264 365.423
475.232 603.266 365.426
475.313 603.267 365.428
475.395 603.271 365.431
475.476 603.274 365.434
475.557 603.279 365.437
475.639 603.284 365.44
475.72 603.288 365.443
475.802 603.292 365.446
475.883 603.295 365.449
475.965 603.298 365.452
476.046 603.3 365.455
476.128 603.301 365.458
476.209 603.302 365.461
476.291 603.304 365.464
476.372 603.306 365.466
476.454 603.309 365.469
476.535 603.312 365.472
476.616 603.316 365.475
476.698 603.32 365.478
476.779 603.326 365.481
476.861 603.331 365.484
476.942 603.341 365.487
477.023 603.352 365.49
477.105 603.367 365.493
477.186 603.383 365.497
477.267 603.403 365.5
477.349 603.425 365.503
477.43 603.455 365.507
477.511 603.488 365.51
477.592 603.529 365.514
477.673 603.577 365.517
477.754 603.63 365.521
477.835 603.69 365.525
477.913 603.911 365.532
477.989 604.412 365.544
478.066 604.774 365.554
478.148 604.78 365.557
471.151 604.498 365.222
471.235 604.262 365.22
471.317 604.201 365.222
471.399 604.182 365.225
471.482 603.986 365.224
471.567 603.721 365.222
471.65 603.609 365.223
471.732 603.585 365.225
471.813 603.563 365.228
471.895 603.543 365.23
471.977 603.524 365.233
472.058 603.507 365.235
472.14 603.491 365.238
472.222 603.478 365.24
472.303 603.466 365.243
472.385 603.456 365.246
472.467 603.447 365.248
472.548 603.439 365.251
472.63 603.43 365.254
472.711 603.42 365.257
472.793 603.409 365.259
472.875 603.393 365.262
472.956 603.377 365.264
473.038 603.361 365.267
473.12 603.344 365.269
473.201 603.327 365.272
473.283 603.309 365.275
473.365 603.291 365.277
473.446 603.273 365.28
473.528 603.258 365.282
473.61 603.243 365.285
473.691 603.231 365.287
473.773 603.22 365.29
473.855 603.211 365.293
473.936 603.204 365.296
474.018 603.198 365.298
474.099 603.192 365.301
474.181 603.187 365.304
474.262 603.184 365.307
474.344 603.181 365.31
474.425 603.179 365.312
474.507 603.177 365.315
474.589 603.173 365.318
474.67 603.169 365.321
474.752 603.166 365.324
474.833 603.162 365.326
474.915 603.16 365.329
474.996 603.159 365.332
475.078 603.159 365.335
475.159 603.159 365.338
475.241 603.16 365.341
475.322 603.161 365.344
475.404 603.164 365.347
475.485 603.167 365.349
475.566 603.171 365.352
475.648 603.175 365.355
475.729 603.179 365.358
475.811 603.183 365.361
475.892 603.187 365.364
475.974 603.191 365.367
476.055 603.195 365.37
476.137 603.198 365.373
476.218 603.2 365.376
476.299 603.204 365.379
476.381 603.207 365.382
476.462 603.211 365.385
476.544 603.215 365.388
476.625 603.219 365.391
476.707 603.222 365.394
476.788 603.229 365.397
476.87 603.235 365.4
476.951 603.245 365.403
477.032 603.255 365.406
477.114 603.269 365.409
477.195 603.285 365.412
477.276 603.306 365.415
477.357 603.329 365.418
477.439 603.359 365.422
477.52 603.392 365.425
477.601 603.433 365.429
477.682 603.48 365.433
477.762 603.534 365.437
477.843 603.596 365.441
477.923 603.743 365.446
478.001 604.037 365.454
478.079 604.321 365.463
478.158 604.578 365.47
471.161 604.292 365.135
471.248 603.824 365.129
471.33 603.703 365.13
471.412 603.664 365.132
471.494 603.618 365.134
471.576 603.568 365.136
471.658 603.535 365.138
471.74 603.51 365.141
471.822 603.487 365.143
471.904 603.465 365.146
471.985 603.444 365.148
472.067 603.423 365.151
472.149 603.405 365.153
472.23 603.391 365.156
472.312 603.379 365.159
472.394 603.369 365.161
472.475 603.359 365.164
472.557 603.35 365.167
472.638 603.341 365.169
472.72 603.329 365.172
472.802 603.318 365.175
472.883 603.301 365.177
472.965 603.283 365.18
473.047 603.266 365.182
473.129 603.248 365.185
473.21 603.229 365.187
473.292 603.21 365.19
473.374 603.191 365.192
473.455 603.173 365.195
473.537 603.158 365.198
473.619 603.145 365.2
473.7 603.134 365.203
473.782 603.124 365.205
473.863 603.115 365.208
473.945 603.108 365.211
474.027 603.102 365.214
474.108 603.097 365.216
474.19 603.092 365.219
474.271 603.089 365.222
474.353 603.086 365.225
474.434 603.082 365.228
474.516 603.078 365.23
474.597 603.073 365.233
474.679 603.068 365.236
474.76 603.064 365.239
474.842 603.061 365.242
474.923 603.059 365.244
475.005 603.057 365.247
475.087 603.056 365.25
475.168 603.054 365.253
475.25 603.055 365.256
475.331 603.055 365.259
475.412 603.057 365.262
475.494 603.06 365.265
475.575 603.063 365.268
475.657 603.066 365.27
475.738 603.07 365.273
475.82 603.074 365.276
475.901 603.079 365.279
475.983 603.084 365.282
476.064 603.089 365.285
476.145 603.094 365.288
476.227 603.099 365.291
476.308 603.103 365.294
476.39 603.108 365.297
476.471 603.113 365.3
476.553 603.118 365.303
476.634 603.121 365.306
476.716 603.125 365.309
476.797 603.132 365.312
476.878 603.138 365.315
476.96 603.148 365.318
477.041 603.158 365.321
477.122 603.172 365.324
477.204 603.187 365.327
477.285 603.208 365.33
477.366 603.233 365.334
477.447 603.263 365.337
477.528 603.296 365.341
477.609 603.336 365.344
477.69 603.383 365.348
477.771 603.438 365.352
477.852 603.502 365.356
477.933 603.575 365.36
478.013 603.662 365.365
478.092 603.867 365.371
478.168 604.377 365.384
471.003 604.49 365.05
471.087 604.267 365.049
471.172 603.986 365.047
471.257 603.698 365.044
471.339 603.608 365.045
471.421 603.565 365.047
471.503 603.527 365.05
471.585 603.491 365.052
471.667 603.462 365.054
471.749 603.437 365.057
471.83 603.411 365.059
471.912 603.386 365.061
471.994 603.361 365.064
472.076 603.338 365.066
472.158 603.318 365.069
472.239 603.302 365.071
472.321 603.289 365.074
472.402 603.279 365.077
472.484 603.269 365.079
472.566 603.26 365.082
472.647 603.25 365.085
472.729 603.235 365.087
472.811 603.221 365.09
472.892 603.201 365.092
472.974 603.182 365.095
473.056 603.164 365.097
473.137 603.145 365.1
473.219 603.125 365.103
473.301 603.105 365.105
473.383 603.087 365.108
473.464 603.07 365.11
473.546 603.056 365.113
473.628 603.044 365.115
473.709 603.033 365.118
473.791 603.024 365.121
473.872 603.016 365.123
473.954 603.008 365.126
474.035 603.001 365.129
474.117 602.995 365.132
474.199 602.99 365.134
474.28 602.985 365.137
474.362 602.981 365.14
474.443 602.975 365.143
474.525 602.969 365.146
474.606 602.964 365.148
474.688 602.959 365.151
474.769 602.954 365.154
474.851 602.949 365.157
474.932 602.947 365.16
475.014 602.945 365.162
475.095 602.945 365.165
475.177 602.944 365.168
475.258 602.944 365.171
475.34 602.945 365.174
475.421 602.946 365.177
475.503 602.949 365.18
475.584 602.952 365.183
475.666 602.957 365.186
475.747 602.962 365.189
475.829 602.968 365.191
475.91 602.974 365.194
475.991 602.98 365.197
476.073 602.985 365.2
476.154 602.991 365.203
476.236 602.997 365.206
476.317 603.003 365.209
476.399 603.01 365.212
476.48 603.015 365.215
476.561 603.021 365.218
476.643 603.025 365.221
476.724 603.028 365.224
476.806 603.035 365.227
476.887 603.041 365.23
476.969 603.05 365.233
477.05 603.059 365.236
477.131 603.074 365.239
477.213 603.09 365.243
477.294 603.113 365.246
477.375 603.137 365.249
477.456 603.168 365.253
477.537 603.201 365.256
477.618 603.241 365.26
477.699 603.288 365.263
477.78 603.342 365.267
477.861 603.405 365.271
477.942 603.473 365.275
478.022 603.548 365.28
478.102 603.693 365.285
478.18 604.02 365.294
478.258 604.331 365.303
478.336 604.574 365.31
471.013 604.255 364.963
471.1 603.792 364.957
471.183 603.673 364.958
471.266 603.593 364.959
471.348 603.541 364.961
471.43 603.495 364.963
471.512 603.456 364.965
471.594 603.419 364.968
471.675 603.389 364.97
471.757 603.363 364.972
471.839 603.335 364.975
471.921 603.307 364.977
472.003 603.279 364.979
472.084 603.253 364.982
472.166 603.23 364.984
472.248 603.213 364.987
472.33 603.198 364.989
472.411 603.189 364.992
472.493 603.179 364.995
472.574 603.169 364.997
472.656 603.158 365.0
472.738 603.141 365.003
472.819 603.123 365.005
472.901 603.102 365.008
472.983 603.081 365.01
473.065 603.061 365.013
473.146 603.042 365.015
473.228 603.021 365.018
473.31 603.0 365.02
473.391 602.983 365.023
473.473 602.967 365.025
473.555 602.954 365.028
473.636 602.943 365.031
473.718 602.933 365.033
473.8 602.924 365.036
473.881 602.916 365.039
473.963 602.907 365.041
474.044 602.9 365.044
474.126 602.893 365.047
474.207 602.887 365.05
474.289 602.881 365.052
474.371 602.874 365.055
474.452 602.867 365.058
474.534 602.86 365.061
474.615 602.854 365.063
474.697 602.849 365.066
474.778 602.842 365.069
474.86 602.836 365.072
474.941 602.834 365.075
475.023 602.833 365.077
475.104 602.833 365.08
475.186 602.834 365.083
475.267 602.834 365.086
475.349 602.834 365.089
475.43 602.835 365.092
475.512 602.837 365.095
475.593 602.842 365.098
475.675 602.848 365.101
475.756 602.854 365.104
475.838 602.862 365.107
475.919 602.869 365.11
476.0 602.875 365.113
476.082 602.881 365.116
476.163 602.888 365.119
476.245 602.895 365.122
476.326 602.903 365.125
476.407 602.911 365.128
476.489 602.918 365.131
476.57 602.924 365.134
476.652 602.928 365.137
476.733 602.932 365.139
476.815 602.938 365.142
476.896 602.943 365.145
476.977 602.952 365.148
477.059 602.96 365.151
477.14 602.976 365.155
477.221 602.994 365.158
477.303 603.017 365.161
477.384 603.042 365.164
477.465 603.073 365.168
477.546 603.106 365.171
477.627 603.147 365.175
477.708 603.193 365.179
477.789 603.246 365.183
477.87 603.309 365.187
477.95 603.376 365.191
478.031 603.452 365.195
478.111 603.539 365.199
478.192 603.653 365.204
478.271 603.841 365.211
478.347 604.343 365.223
470.772 604.697 364.879
470.855 604.495 364.879
470.939 604.293 364.878
471.024 603.976 364.875
471.11 603.657 364.872
471.192 603.58 364.873
471.274 603.53 364.875
471.356 603.482 364.877
471.438 603.434 364.879
471.52 603.394 364.881
471.602 603.356 364.884
471.684 603.324 364.886
471.766 603.295 364.888
471.848 603.265 364.89
471.929 603.234 364.893
472.011 603.204 364.895
472.093 603.175 364.897
472.175 603.15 364.9
472.257 603.133 364.902
472.338 603.117 364.905
472.42 603.106 364.908
472.501 603.095 364.91
472.583 603.083 364.913
472.665 603.07 364.916
472.746 603.05 364.918
472.828 603.03 364.921
472.91 603.007 364.923
472.992 602.984 364.925
473.073 602.963 364.928
473.155 602.943 364.93
473.237 602.923 364.933
473.319 602.905 364.936
473.4 602.889 364.938
473.482 602.874 364.941
473.563 602.862 364.943
473.645 602.851 364.946
473.727 602.841 364.949
473.808 602.833 364.951
473.89 602.825 364.954
473.971 602.816 364.957
474.053 602.807 364.96
474.135 602.798 364.962
474.216 602.79 364.965
474.298 602.782 364.968
474.379 602.774 364.97
474.461 602.767 364.973
474.543 602.76 364.976
474.624 602.753 364.979
474.706 602.747 364.981
474.787 602.74 364.984
474.869 602.733 364.987
474.95 602.731 364.99
475.032 602.729 364.993
475.113 602.729 364.995
475.195 602.73 364.998
475.276 602.73 365.001
475.358 602.73 365.004
475.439 602.732 365.007
475.521 602.735 365.01
475.602 602.74 365.013
475.684 602.747 365.016
475.765 602.755 365.019
475.846 602.763 365.022
475.928 602.771 365.025
476.009 602.777 365.028
476.091 602.784 365.031
476.172 602.792 365.034
476.253 602.8 365.037
476.335 602.809 365.04
476.416 602.817 365.043
476.498 602.824 365.046
476.579 602.831 365.049
476.66 602.837 365.052
476.742 602.842 365.055
476.823 602.849 365.058
476.905 602.856 365.061
476.986 602.865 365.064
477.067 602.874 365.067
477.149 602.89 365.07
477.23 602.908 365.073
477.311 602.932 365.077
477.392 602.958 365.08
477.474 602.989 365.083
477.555 603.023 365.087
477.636 603.063 365.091
477.717 603.107 365.094
477.798 603.158 365.098
477.878 603.219 365.102
477.959 603.284 365.106
478.04 603.36 365.11
478.12 603.437 365.115
478.201 603.52 365.119
478.281 603.656 365.124
478.358 604.015 365.134
478.436 604.359 365.143
478.515 604.58 365.15
470.779 604.681 364.796
470.866 604.24 364.791
470.953 603.798 364.786
471.035 603.688 364.787
471.118 603.583 364.788
471.2 603.526 364.789
471.282 603.474 364.791
471.364 603.424 364.793
471.447 603.374 364.795
471.528 603.333 364.797
471.61 603.294 364.799
471.692 603.26 364.802
471.774 603.228 364.804
471.856 603.195 364.806
471.938 603.162 364.809
472.02 603.129 364.811
472.102 603.098 364.813
472.183 603.072 364.815
472.265 603.053 364.818
472.347 603.037 364.821
472.428 603.025 364.823
472.51 603.013 364.826
472.592 602.998 364.828
472.673 602.982 364.831
472.755 602.96 364.834
472.837 602.937 364.836
472.919 602.912 364.838
473.0 602.888 364.841
473.082 602.866 364.843
473.164 602.844 364.846
473.246 602.828 364.848
473.327 602.812 364.851
473.409 602.797 364.854
473.491 602.783 364.856
473.572 602.771 364.859
473.654 602.76 364.861
473.735 602.752 364.864
473.817 602.744 364.867
473.899 602.735 364.87
473.98 602.726 364.872
474.062 602.716 364.875
474.143 602.705 364.878
474.225 602.694 364.88
474.307 602.684 364.883
474.388 602.674 364.886
474.47 602.668 364.888
474.551 602.661 364.891
474.633 602.654 364.894
474.715 602.647 364.897
474.796 602.639 364.899
474.878 602.632 364.902
474.959 602.629 364.905
475.041 602.627 364.908
475.122 602.627 364.911
475.204 602.627 364.914
475.285 602.627 364.916
475.367 602.628 364.919
475.448 602.63 364.922
475.53 602.634 364.925
475.611 602.64 364.928
475.692 602.648 364.931
475.774 602.656 364.934
475.855 602.665 364.937
475.937 602.673 364.94
476.018 602.68 364.943
476.099 602.688 364.946
476.181 602.697 364.949
476.262 602.706 364.952
476.344 602.715 364.955
476.425 602.724 364.958
476.506 602.732 364.961
476.588 602.739 364.964
476.669 602.747 364.967
476.751 602.755 364.97
476.832 602.763 364.973
476.913 602.771 364.976
476.995 602.78 364.979
477.076 602.79 364.983
477.157 602.807 364.986
477.239 602.824 364.989
477.32 602.849 364.992
477.401 602.876 364.996
477.482 602.907 364.999
477.563 602.942 365.003
477.644 602.98 365.006
477.725 603.023 365.01
477.806 603.072 365.014
477.887 603.13 365.017
477.968 603.194 365.022
478.048 603.267 365.026
478.129 603.344 365.03
478.21 603.43 365.034
478.29 603.526 365.039
478.37 603.669 365.045
478.449 603.847 365.051
478.525 604.326 365.062
470.787 604.677 364.713
470.875 604.164 364.707
470.962 603.651 364.7
471.044 603.59 364.702
471.126 603.536 364.704
471.208 603.483 364.706
471.291 603.431 364.708
471.373 603.381 364.71
471.455 603.331 364.712
471.537 603.288 364.714
471.619 603.247 364.716
471.701 603.211 364.718
471.782 603.178 364.72
471.864 603.143 364.722
471.946 603.107 364.725
472.028 603.073 364.727
472.11 603.041 364.729
472.192 603.013 364.732
472.273 602.992 364.734
472.355 602.974 364.737
472.437 602.96 364.739
472.519 602.945 364.742
472.6 602.927 364.744
472.682 602.908 364.747
472.764 602.884 364.749
472.845 602.86 364.752
472.927 602.834 364.754
473.009 602.809 364.756
473.091 602.788 364.759
473.173 602.767 364.761
473.254 602.752 364.764
473.336 602.738 364.767
473.418 602.723 364.769
473.499 602.707 364.772
473.581 602.695 364.774
473.662 602.685 364.777
473.744 602.675 364.78
473.826 602.667 364.783
473.907 602.658 364.785
473.989 602.647 364.788
474.07 602.636 364.791
474.152 602.624 364.793
474.234 602.612 364.796
474.315 602.602 364.799
474.397 602.593 364.801
474.478 602.586 364.804
474.56 602.578 364.807
474.642 602.57 364.809
474.723 602.562 364.812
474.805 602.555 364.815
474.886 602.547 364.818
474.968 602.544 364.82
475.049 602.541 364.823
475.131 602.54 364.826
475.212 602.539 364.829
475.294 602.539 364.832
475.375 602.539 364.835
475.457 602.542 364.838
475.538 602.548 364.841
475.62 602.555 364.844
475.701 602.563 364.847
475.782 602.572 364.85
475.864 602.58 364.853
475.945 602.588 364.856
476.027 602.596 364.859
476.108 602.605 364.862
476.189 602.616 364.865
476.271 602.626 364.868
476.352 602.635 364.871
476.434 602.644 364.874
476.515 602.654 364.877
476.596 602.664 364.88
476.678 602.674 364.883
476.759 602.684 364.886
476.84 602.693 364.889
476.922 602.702 364.892
477.003 602.713 364.895
477.085 602.724 364.898
477.166 602.74 364.902
477.247 602.759 364.905
477.328 602.783 364.908
477.41 602.809 364.911
477.491 602.84 364.915
477.572 602.873 364.918
477.653 602.91 364.922
477.734 602.952 364.926
477.815 602.999 364.929
477.896 603.052 364.933
477.976 603.113 364.937
478.057 603.185 364.941
478.138 603.262 364.946
478.218 603.348 364.95
478.299 603.436 364.955
478.379 603.529 364.959
478.459 603.651 364.964
478.536 604.03 364.974
478.613 604.407 364.984
478.693 604.598 364.99
478.772 604.788 364.997
470.795 604.677 364.63
470.883 604.145 364.624
470.97 603.613 364.617
471.052 603.551 364.618
471.134 603.496 364.62
471.217 603.444 364.622
471.299 603.392 364.624
471.381 603.342 364.626
471.463 603.293 364.628
471.545 603.247 364.63
471.627 603.204 364.632
471.709 603.167 364.634
471.791 603.133 364.636
471.873 603.097 364.639
471.954 603.058 364.641
472.036 603.023 364.643
472.118 602.989 364.645
472.2 602.96 364.648
472.282 602.937 364.65
472.364 602.916 364.653
472.445 602.899 364.655
472.527 602.882 364.658
472.609 602.861 364.66
472.69 602.84 364.663
472.772 602.813 364.665
472.854 602.787 364.667
472.936 602.761 364.67
473.018 602.735 364.672
473.099 602.715 364.675
473.181 602.696 364.677
473.263 602.683 364.68
473.344 602.67 364.682
473.426 602.654 364.685
473.508 602.637 364.688
473.589 602.624 364.69
473.671 602.613 364.693
473.753 602.604 364.696
473.834 602.595 364.698
473.916 602.585 364.701
473.997 602.573 364.704
474.079 602.56 364.706
474.161 602.547 364.709
474.242 602.535 364.712
474.324 602.526 364.714
474.405 602.518 364.717
474.487 602.509 364.72
474.569 602.5 364.722
474.65 602.491 364.725
474.732 602.482 364.728
474.813 602.474 364.731
474.895 602.467 364.733
474.977 602.464 364.736
475.058 602.46 364.739
475.14 602.458 364.742
475.221 602.455 364.745
475.303 602.454 364.747
475.384 602.454 364.75
475.466 602.459 364.753
475.547 602.466 364.756
475.628 602.474 364.759
475.71 602.483 364.762
475.791 602.491 364.765
475.872 602.499 364.768
475.954 602.507 364.771
476.035 602.517 364.774
476.117 602.527 364.777
476.198 602.538 364.781
476.279 602.549 364.784
476.361 602.559 364.787
476.442 602.57 364.79
476.523 602.582 364.793
476.605 602.593 364.796
476.686 602.606 364.799
476.768 602.618 364.802
476.849 602.629 364.805
476.93 602.64 364.808
477.012 602.651 364.811
477.093 602.662 364.814
477.174 602.68 364.818
477.256 602.699 364.821
477.337 602.722 364.824
477.418 602.747 364.827
477.499 602.776 364.831
477.58 602.808 364.834
477.661 602.845 364.838
477.742 602.885 364.841
477.823 602.929 364.845
477.904 602.978 364.849
477.985 603.035 364.853
478.066 603.107 364.857
478.146 603.183 364.861
478.227 603.27 364.866
478.307 603.359 364.87
478.388 603.453 364.875
478.468 603.554 364.88
478.548 603.721 364.886
478.627 603.893 364.892
478.703 604.332 364.902
478.78 604.772 364.913
470.639 604.691 364.542
470.723 604.535 364.542
470.806 604.362 364.542
470.892 603.973 364.537
470.978 603.584 364.533
471.06 603.524 364.535
471.143 603.469 364.537
471.225 603.417 364.539
471.307 603.365 364.541
471.389 603.316 364.543
471.471 603.267 364.545
471.553 603.222 364.547
471.635 603.178 364.549
471.717 603.14 364.551
471.799 603.105 364.553
471.881 603.067 364.555
471.963 603.026 364.557
472.044 602.988 364.56
472.126 602.954 364.562
472.208 602.923 364.564
472.29 602.899 364.566
472.372 602.876 364.569
472.453 602.857 364.571
472.535 602.836 364.574
472.617 602.811 364.576
472.699 602.786 364.579
472.781 602.757 364.581
472.862 602.729 364.583
472.944 602.703 364.586
473.026 602.678 364.588
473.108 602.661 364.591
473.189 602.644 364.593
473.271 602.631 364.596
473.353 602.618 364.599
473.434 602.601 364.601
473.516 602.583 364.604
473.598 602.569 364.606
473.679 602.557 364.609
473.761 602.546 364.612
473.842 602.537 364.614
473.924 602.526 364.617
474.006 602.512 364.62
474.087 602.498 364.622
474.169 602.484 364.625
474.251 602.472 364.628
474.332 602.465 364.63
474.414 602.457 364.633
474.495 602.448 364.636
474.577 602.439 364.638
474.659 602.43 364.641
474.74 602.421 364.644
474.822 602.413 364.647
474.903 602.405 364.649
474.985 602.4 364.652
475.066 602.395 364.655
475.148 602.392 364.658
475.23 602.389 364.66
475.311 602.388 364.663
475.393 602.388 364.666
475.474 602.392 364.669
475.555 602.399 364.672
475.637 602.407 364.675
475.718 602.416 364.678
475.8 602.425 364.681
475.881 602.433 364.684
475.962 602.442 364.687
476.044 602.451 364.69
476.125 602.461 364.693
476.206 602.473 364.696
476.288 602.485 364.7
476.369 602.498 364.703
476.45 602.511 364.706
476.532 602.525 364.709
476.613 602.539 364.712
476.694 602.554 364.715
476.776 602.568 364.718
476.857 602.58 364.721
476.939 602.592 364.724
477.02 602.605 364.728
477.101 602.617 364.731
477.182 602.634 364.734
477.264 602.653 364.737
477.345 602.675 364.74
477.426 602.698 364.744
477.507 602.724 364.747
477.589 602.754 364.75
477.67 602.787 364.754
477.751 602.825 364.757
477.832 602.867 364.761
477.913 602.914 364.765
477.993 602.969 364.769
478.074 603.04 364.773
478.155 603.115 364.777
478.235 603.202 364.782
478.316 603.291 364.786
478.396 603.385 364.791
478.477 603.48 364.795
478.557 603.579 364.8
478.637 603.681 364.805
478.714 604.068 364.815
478.791 604.454 364.825
478.871 604.627 364.831
478.95 604.782 364.836
470.648 604.655 364.458
470.734 604.267 364.454
470.819 603.894 364.45
470.903 603.726 364.45
470.986 603.558 364.45
471.068 603.501 364.452
471.15 603.447 364.453
471.233 603.395 364.455
471.315 603.344 364.457
471.397 603.295 364.459
471.479 603.247 364.461
471.561 603.203 364.463
471.643 603.16 364.465
471.725 603.122 364.468
471.807 603.085 364.47
471.889 603.045 364.472
471.97 603.002 364.474
472.052 602.962 364.476
472.134 602.926 364.478
472.216 602.894 364.481
472.298 602.87 364.483
472.38 602.845 364.485
472.462 602.822 364.488
472.543 602.798 364.49
472.625 602.768 364.493
472.707 602.739 364.495
472.789 602.708 364.497
472.871 602.677 364.5
472.952 602.654 364.502
473.034 602.63 364.504
473.116 602.615 364.507
473.197 602.602 364.51
473.279 602.588 364.512
473.361 602.574 364.515
473.443 602.556 364.517
473.524 602.536 364.52
473.606 602.521 364.523
473.688 602.507 364.525
473.769 602.496 364.528
