VERSION 0.7
FIELDS x y z
SIZE 4 4 4
TYPE F F F
COUNT 1 1 1
WIDTH 1148
HEIGHT 1
VIEWPOINT 0.0 0.0 0.0 1.0 0.0 0.0 0.0
POINTS 1148
DATA ascii
447.892060593 604.685654758 383.29400419
447.973672184 604.760803747 383.294209034
448.068037359 605.086202619 383.2939432
448.17308797 605.621270311 383.293283015
459.111954625 605.064809295 383.343142016
459.162151176 604.523534698 383.34450625
459.223266973 604.196516736 383.345467504
459.297415419 604.125224436 383.34594778
459.371679025 604.056191812 383.346423806
459.446140707 603.99104583 383.346892522
459.520797773 603.929733635 383.347354027
459.59595872 603.878308573 383.347796936
459.671429053 603.832954249 383.348228427
459.748208324 603.813283813 383.348611611
459.825059036 603.795015181 383.348992158
459.902532303 603.788962282 383.34934973
459.980007184 603.782941051 383.349707242
460.057590196 603.779041569 383.350060764
460.135173209 603.775142086 383.350414285
460.21279734 603.772049446 383.350766289
460.290424736 603.769020841 383.351118172
460.368120487 603.767333515 383.351467533
460.44582943 603.765905032 383.351816407
460.523591911 603.765527067 383.352163305
460.601372238 603.765499273 383.352509545
460.679149376 603.765408914 383.352855902
460.756924884 603.765286577 383.353202319
460.834705213 603.765258828 383.353548558
460.912489127 603.765301412 383.353894665
460.990258085 603.765050542 383.354241324
461.068011181 603.764488433 383.354588569
461.145763671 603.763914413 383.354935836
461.223515238 603.763322305 383.355283136
461.301273231 603.762856281 383.3556302
461.379045605 603.762672443 383.355976733
461.456822251 603.762572426 383.356323108
461.534613991 603.762768574 383.356668927
461.612407962 603.763008513 383.357014662
461.690216564 603.763535519 383.357359858
461.76802599 603.764078721 383.357705024
461.8458533 603.764972823 383.358049529
461.92368061 603.765866926 383.358394035
462.001513014 603.766860984 383.358738352
462.079345653 603.767859656 383.359082661
462.157168481 603.768665833 383.359427332
462.234989814 603.769442646 383.359772058
462.312834972 603.770686978 383.360115905
462.390686874 603.772063627 383.360459503
462.468564744 603.773949825 383.360802143
462.546454218 603.776063693 383.361144354
462.624393414 603.779153219 383.36148473
462.702365354 603.78288525 383.361823898
462.780359742 603.787057746 383.362162237
462.858375294 603.791645538 383.362499796
462.936403678 603.796485105 383.36283688
463.014449318 603.801663266 383.363173328
463.092506389 603.807065718 383.363509354
463.170585824 603.812907 383.363844555
463.248674587 603.818931316 383.364179412
463.326791333 603.825504732 383.364513235
463.404907635 603.832069416 383.364847075
463.483021631 603.83858885 383.365181001
463.561171251 603.845807295 383.365513611
463.639769733 603.86183328 383.365829656
463.718368215 603.877859265 383.366145701
463.797709402 603.908458554 383.366434336
463.877061674 603.939275354 383.366722562
463.956902698 603.979682408 383.36699275
464.036799808 604.021189983 383.367260868
464.136028923 604.442028733 383.366815528
464.239827422 604.952527579 383.366201552
445.53339639 605.574713818 383.203276135
445.585719159 605.075159708 383.2045619
445.658306415 604.97323386 383.205099793
445.733984863 604.931963171 383.205523603
445.809460563 604.886714163 383.205954896
445.884878882 604.840339215 383.206388307
445.960471615 604.79738662 383.206815281
446.036142278 604.755963162 383.207239378
446.111995682 604.718125422 383.207656732
446.187969426 604.682649009 383.208069645
446.263688879 604.642182899 383.208491942
446.339168571 604.597012217 383.208923087
446.414346127 604.545913052 383.209365384
446.489117363 604.486841097 383.209822675
446.564175782 604.433404232 383.210269368
446.639796082 604.390992544 383.210695325
446.715873449 604.357549398 383.211104413
446.793322018 604.351011881 383.211462896
446.87080076 604.34506641 383.211820266
446.948435851 604.342188816 383.212171865
447.026072398 604.339339793 383.212523411
447.103727292 604.336850754 383.212874279
447.181382185 604.334361715 383.213225148
447.259284588 604.336729286 383.213566882
447.337190685 604.339169345 383.21390848
447.415777207 604.354960667 383.214224966
447.494441812 604.372284102 383.214538571
447.574679236 604.420469296 383.21479413
447.655288418 604.475949088 383.215035969
447.736572891 604.544679383 383.215252886
447.818119211 604.61854763 383.215460139
447.899752693 604.694126163 383.215664176
447.98143685 604.770699048 383.215866342
448.075688234 605.09386511 383.215604708
448.180468915 605.623636265 383.214954484
459.118919853 605.05901809 383.264828827
459.168622315 604.508048496 383.266211296
459.229469264 604.175755231 383.267182472
459.3036177 604.104462746 383.267662748
459.377903098 604.035857715 383.26813797
459.45242407 603.971875106 383.268604498
459.527188005 603.912659893 383.269062059
459.602578528 603.865739544 383.269496495
459.678263445 603.824595768 383.269920067
459.755193873 603.807891336 383.270297672
459.832184102 603.792360304 383.270673071
459.909695449 603.787054609 383.271029237
459.987207832 603.781769229 383.271385365
460.064789577 603.777844879 383.271738933
460.142371322 603.773920529 383.272092502
460.220000326 603.770923487 383.272444326
460.29763308 603.768000042 383.272796011
460.375319623 603.766132033 383.273145712
460.453016547 603.764467705 383.27349503
460.530734296 603.763212025 383.273843578
460.608458988 603.76209256 383.274191871
460.686208207 603.761454378 383.274539259
460.763969963 603.761062184 383.274886183
460.841749519 603.761019267 383.275232451
460.919542311 603.761236068 383.275578231
460.997318882 603.761134572 383.275924609
461.075078248 603.760695487 383.276271622
461.152810412 603.759722646 383.276619639
461.230501269 603.757939286 383.27696918
461.308230945 603.75691762 383.277317289
461.3860475 603.757600696 383.277662191
461.463857766 603.758160366 383.278007326
461.54164581 603.758284005 383.27835328
461.619436779 603.758465022 383.278699127
461.697246917 603.759022189 383.279044266
461.775058632 603.759610294 383.279389347
461.85290451 603.760868743 383.279733168
461.930750388 603.762127192 383.280076988
462.008602385 603.763505708 383.280420582
462.086454665 603.764889766 383.280764166
462.164286489 603.765872455 383.281108505
462.242115193 603.766793918 383.281452959
462.319954282 603.767919139 383.28179703
462.397796309 603.769102026 383.282140992
462.475684895 603.77119849 383.282483236
462.553594284 603.773703147 383.282824713
462.631562481 603.777361731 383.283164019
462.709569406 603.781780219 383.283501896
462.787581996 603.786309878 383.283839563
462.865599928 603.790944358 383.284177034
462.943626666 603.795751624 383.284514179
463.021665246 603.800791257 383.284850888
463.099713593 603.806022534 383.285187236
463.177781049 603.811628767 383.285522878
463.255852174 603.817307003 383.285858386
463.333934308 603.823201247 383.286193487
463.412011817 603.829004737 383.286528759
463.490065359 603.834337957 383.286864915
463.568158381 603.840445838 383.287199614
463.646748843 603.856314454 383.287515955
463.725339304 603.872183071 383.287832296
463.80460343 603.901270275 383.288123775
463.883877611 603.930554772 383.288414883
463.963790208 603.972366232 383.28868243
464.043776067 604.015615213 383.288947273
464.143115434 604.438617321 383.288497864
464.247029268 604.951379258 383.287879631
445.399760889 605.862520718 383.123718363
445.467905238 605.673416497 383.124420224
445.529517686 605.35614377 383.125363148
445.590828661 605.032955574 383.126317198
445.664594308 604.954152044 383.126811602
445.740259821 604.91262753 383.127235889
445.815800851 604.868660407 383.127664771
445.891306649 604.82400198 383.128094954
445.967006166 604.783144699 383.128517987
446.042792239 604.743985802 383.128937825
446.118697989 604.707175202 383.129353247
446.194682551 604.67191104 383.12976576
446.27039827 604.631371656 383.130188195
446.345860507 604.585858493 383.130619985
446.421032519 604.534650529 383.131062486
446.495814226 604.475784042 383.131519391
446.570938816 604.423645572 383.131963642
446.646734263 604.384670611 383.132383134
446.722952586 604.353993306 383.13278702
446.80043954 604.348208967 383.133144087
446.877959189 604.343066186 383.133499947
446.955648264 604.341247839 383.133849554
447.033336483 604.339412714 383.134199193
447.111013928 604.337366191 383.134549229
447.188691374 604.335319667 383.134899265
447.266599163 604.337792938 383.135240801
447.344510391 604.340333668 383.135582209
447.423207574 604.358296359 383.135894612
447.501994948 604.378028783 383.136203685
447.582317951 604.42789319 383.136456086
447.663003921 604.484879702 383.136695091
447.744336361 604.554551227 383.136910238
447.825919475 604.629141429 383.137116133
447.90761132 604.705865171 383.137318016
447.989366383 604.783829341 383.137517565
448.083460456 605.103908679 383.137261737
448.18789262 605.626841265 383.136624375
458.980144716 605.245975422 383.185460736
459.048209009 605.05530035 383.186165552
459.111259048 604.766235934 383.187055421
459.170107954 604.394737204 383.188100335
459.235904383 604.159562244 383.188888847
459.309993015 604.087096301 383.189371331
459.384258738 604.018105211 383.189847278
459.458829057 603.95509087 383.190311985
459.533689557 603.897770457 383.190765982
459.609298421 603.855134386 383.191192361
459.685180527 603.817859834 383.191608655
459.762218653 603.803268633 383.191982286
459.839308367 603.78968969 383.192354013
459.916847635 603.784931855 383.192709149
459.99438766 603.780188891 383.193064257
460.071978461 603.776442235 383.193417491
460.149569262 603.772695578 383.193770725
460.227200124 603.769734985 383.19412248
460.304834164 603.766836778 383.194474118
460.3825081 603.764721382 383.194824284
460.460189734 603.762757055 383.195174166
460.537906322 603.761478579 383.195522758
460.615634561 603.760428722 383.19587092
460.693381709 603.759749902 383.196218384
460.771138523 603.759260725 383.196565491
460.848905461 603.758970217 383.196912224
460.926679927 603.758827437 383.19725868
461.004439573 603.758393843 383.197605683
461.0821835 603.75765181 383.197953266
461.15992271 603.756817233 383.198301022
461.237654759 603.755842126 383.198649044
461.315409878 603.755319711 383.198996213
461.393216632 603.755810466 383.199341478
461.471021498 603.756264193 383.199686811
461.548819698 603.75658709 383.200032391
461.626620423 603.756959557 383.200377878
461.704437709 603.757656981 383.200722753
461.782256336 603.758380697 383.201067579
461.860103994 603.759674082 383.201411334
461.937951653 603.760967468 383.201755088
462.015809302 603.76245688 383.202098474
462.093667411 603.76395534 383.202441843
462.17150133 603.764979121 383.202786104
462.249331558 603.765930494 383.203130502
462.327175399 603.767148969 383.203474398
462.405023093 603.76844304 383.203818151
462.482921599 603.770734158 383.204160029
462.560842809 603.773470766 383.204501069
462.638810392 603.777117289 383.204840398
462.716808512 603.781363024 383.205178599
462.794812373 603.785721401 383.205516589
462.872821647 603.790185984 383.205854379
462.95084401 603.794907418 383.206191686
463.028883978 603.799974273 383.206528343
463.10693302 603.805219192 383.206864666
463.184999817 603.810812495 383.207200333
463.263064262 603.816359647 383.207536087
463.34112165 603.82176834 383.207872101
463.419183967 603.827273724 383.208207933
463.497271817 603.833280134 383.208542824
463.575394571 603.839971433 383.208876426
463.65395712 603.855292331 383.209193797
463.732519668 603.87061323 383.209511168
463.811782366 603.899672405 383.209802699
463.891055513 603.928936629 383.210093846
463.970915543 603.969716624 383.210363332
464.050842921 604.011818101 383.210630334
464.150240206 604.435956662 383.210178787
464.254239469 604.950394896 383.209557402
445.394746252 605.621661491 383.045847298
445.451159445 605.202369376 383.046982104
445.523017181 605.086128936 383.04754692
445.595587741 604.983875497 383.048085429
445.670820857 604.933866523 383.048525674
445.746460126 604.891827044 383.048950931
445.822058163 604.848978517 383.049377709
445.89764453 604.805901014 383.049804918
445.973454955 604.767219947 383.050223857
446.04936549 604.730503243 383.050639103
446.125332757 604.69489973 383.051052254
446.201337385 604.660029294 383.051464027
446.27704934 604.619416074 383.051886601
446.352485348 604.573388228 383.052319358
446.427633334 604.521708832 383.052762746
446.50239398 604.462429075 383.053220428
446.577580307 604.411502025 383.053662401
446.653599492 604.376917228 383.054073636
446.729995315 604.349722806 383.054470972
446.807521054 604.34469951 383.054826607
446.885084028 604.340406837 383.055180868
446.962839947 604.339900116 383.055528008
447.040591631 604.339310298 383.055875304
447.118289956 604.337673462 383.05622457
447.19598828 604.336036626 383.056573836
447.273896965 604.338527458 383.056915338
447.351808789 604.341079897 383.057256725
447.430647157 604.361812912 383.057563917
447.50959185 604.384632222 383.057867184
447.590005753 604.436280276 383.05811623
447.670766925 604.494742398 383.05835246
447.752144718 604.565303825 383.058565933
447.83376161 604.64055682 383.058770582
447.915510455 604.718399001 383.058970361
447.997336018 604.797746523 383.059167308
448.091262196 605.114531429 383.058917676
448.195326727 605.630250358 383.058293882
458.979897618 605.098664491 383.107413723
459.036131226 604.675848576 383.108555156
459.100040559 604.403645168 383.109413313
459.170380905 604.257630619 383.110034129
459.242396135 604.144480518 383.110593132
459.316410419 604.070555726 383.11107836
459.390646381 604.000980663 383.111555406
459.465263627 603.938887131 383.112018381
459.540218186 603.883412338 383.112468907
459.616042659 603.845006926 383.112887328
459.692117723 603.811518575 383.113296501
459.769252975 603.798833172 383.113666548
459.846432436 603.787015248 383.114034962
459.923997154 603.782756784 383.114389159
460.001562425 603.778509184 383.114743335
460.079164793 603.774989494 383.115096142
460.156767161 603.771469803 383.115448949
460.234399146 603.76853127 383.115800663
460.312033482 603.765638861 383.116152291
460.389693983 603.763259852 383.116502952
460.467359534 603.76097992 383.116853428
460.545085558 603.759886603 383.117201671
460.62283174 603.759188825 383.117549171
460.700583104 603.758592739 383.117896479
460.778337118 603.758048629 383.11824369
460.856088557 603.757453994 383.118590995
460.933838081 603.756821791 383.118938371
461.011574833 603.755938985 383.119286219
461.08929804 603.754790388 383.119634567
461.167050955 603.754224716 383.119981818
461.244848981 603.754544228 383.120327404
461.322642621 603.754777662 383.120673152
461.400426443 603.754818444 383.121019262
461.478216419 603.754979993 383.121365146
461.556028142 603.755568255 383.121710227
461.633841728 603.756193072 383.122055239
461.711667527 603.757057533 383.1223998
461.789494189 603.757938923 383.122744329
461.867339545 603.759187119 383.123088169
461.9451849 603.760435315 383.123432008
462.02304481 603.761969081 383.123775311
462.10090539 603.763516027 383.124118588
462.178739725 603.76454796 383.124462835
462.256570055 603.765501333 383.124807229
462.334421281 603.76686472 383.125150851
462.412278421 603.768344149 383.125494256
462.490186654 603.770826125 383.125835775
462.568117716 603.773756048 383.126176452
462.64607748 603.777249155 383.126516069
462.724056145 603.78111314 383.126854988
462.802044726 603.785171694 383.127193542
462.880042656 603.789413698 383.127531751
462.958059982 603.79403628 383.127869244
463.036103392 603.799170675 383.128205774
463.11415542 603.80447419 383.128541986
463.192224311 603.810108593 383.128877576
463.270284741 603.815576955 383.129213478
463.348319785 603.820547196 383.129550317
463.426372649 603.825867115 383.129886498
463.504517858 603.832999003 383.130219271
463.582691345 603.840685769 383.130551001
463.66122114 603.855364001 383.130869581
463.739750936 603.870042233 383.131188161
463.819030602 603.899434365 383.131479066
463.89832146 603.929046107 383.131769559
463.978098728 603.968202128 383.1320421
464.057931812 604.008453393 383.132312581
464.157374284 604.433478618 383.131859367
464.261451703 604.949450415 383.131235097
445.398268013 605.548302815 382.967661193
445.451125753 605.05924587 382.968927214
445.525768191 604.997646646 382.969389259
445.601416076 604.95577624 382.969814198
445.677124064 604.915085169 382.970236918
445.75284122 604.874573997 382.9706593
445.82851823 604.833275077 382.971083164
445.904183878 604.79175321 382.971507446
445.979963356 604.752464905 382.971927528
446.055793694 604.714174576 382.972345733
446.131733099 604.678024355 382.972759913
446.207744329 604.643283475 382.973171442
446.283492063 604.60337229 382.973592695
446.358991357 604.558586246 382.974023118
446.434203195 604.508159747 382.974464149
446.509028453 604.45014781 382.974919446
446.584297321 604.400840362 382.975358373
446.660434122 604.368563439 382.975765267
446.736945766 604.34364163 382.976158328
446.814581934 604.340785168 382.976509888
446.892243177 604.33842073 382.976860522
446.970034356 604.338605872 382.977206361
447.047824043 604.338761738 382.977552255
447.125594931 604.338548739 382.977898843
447.203365819 604.338335741 382.978245431
447.281343108 604.342172718 382.978584401
447.359323477 604.346070143 382.978923258
447.438371392 604.37091487 382.979222716
447.517541812 604.398163386 382.979517654
447.598014507 604.450965049 382.97976453
447.678795013 604.509806547 382.980000046
447.760164334 604.580201729 382.980213831
447.841761971 604.655076911 382.980419191
447.923483621 604.732385475 382.980619974
448.005277372 604.811108795 382.980818095
448.099008535 605.124067119 382.98057566
448.202741312 605.633276391 382.97996411
458.984868686 605.053744006 383.02917413
459.037523589 604.560707021 383.030447637
459.101580283 604.29139511 383.031300355
459.175189827 604.209528532 383.03180052
459.248985263 604.131309506 383.032293824
459.32300257 604.057444009 383.03277894
459.397276187 603.988607817 383.033254596
459.471990658 603.92842203 383.033713983
459.547040827 603.874823288 383.03416098
459.622956744 603.838212187 383.034576027
459.699119146 603.806437594 383.034981977
459.776324369 603.795125146 383.035349441
459.853567991 603.784566181 383.035715488
459.931146243 603.780573281 383.036069185
460.008725056 603.776591391 383.036422861
460.086341461 603.773347138 383.03677515
460.163957866 603.770102885 383.037127439
460.24159959 603.767355449 383.037478794
460.319243324 603.764647442 383.037830074
460.396910989 603.76240899 383.038180472
460.474583271 603.760261154 383.038530699
460.552310179 603.759185175 383.03887891
460.630055295 603.758466483 383.039226449
460.707801506 603.757769278 383.039573947
460.785548277 603.757083056 383.039921425
460.863295539 603.75640646 383.040268885
460.941043165 603.755737021 383.040616331
461.018782896 603.754912649 383.040964069
461.096514251 603.753923952 383.041312115
461.174272987 603.753472501 383.041659152
461.2520733 603.753836867 383.042004653
461.329868691 603.754104665 383.042350337
461.407653068 603.754156334 383.042696427
461.485443486 603.754326552 383.043042294
461.563255251 603.754915641 383.043387373
461.641068586 603.755535531 383.043732394
461.718892211 603.756357333 383.044077036
461.796716661 603.757195315 383.044421647
461.874558976 603.758383865 383.044765599
461.952401292 603.759572414 383.04510955
462.030257162 603.761026917 383.045453002
462.108113657 603.762493694 383.04579643
462.185954395 603.763651281 383.04614044
462.263792729 603.764761703 383.046484539
462.341650994 603.766263215 383.046827902
462.419514901 603.767875411 383.047171057
462.497424202 603.770378358 383.047512536
462.575353788 603.773279298 383.047853267
462.653309916 603.776701076 383.048193019
462.731283525 603.780465843 383.048532125
462.809262443 603.784334788 383.048871035
462.887246366 603.788301958 383.049209761
462.965256197 603.792777471 383.04954753
463.043300868 603.797936621 383.049884014
463.121357813 603.803336618 383.050220045
463.199438774 603.80920784 383.050555189
463.277503885 603.814768053 383.050890918
463.355521445 603.819395235 383.051228403
463.433564026 603.824513373 383.051564963
463.51173626 603.832175551 383.051896739
463.589934649 603.840350944 383.05222755
463.668462592 603.854992834 383.052546198
463.746990536 603.869634725 383.052864846
463.826250902 603.898648152 383.053156464
463.9055222 603.927876079 383.053447678
463.985249705 603.966055677 383.053722056
464.065029562 604.005262516 383.053994502
464.164518601 604.431201457 383.053539569
464.268666173 604.948549805 383.05291271
445.405152597 605.540929204 382.88935098
445.457675616 605.045304394 382.890629355
445.532163737 604.980677177 382.891097095
445.607665632 604.935942155 382.891527421
445.683457469 604.896896366 382.891947047
445.759293534 604.858718425 382.892365041
445.835058171 604.819138905 382.89278567
445.910802591 604.77916271 382.893207046
445.986495241 604.738170659 382.893630332
446.062164758 604.696724715 382.894054473
446.138041091 604.659336898 382.89447098
446.21405362 604.624621506 382.894882461
446.289852708 604.585718003 382.895301819
446.365450553 604.542865708 382.895728604
446.440760861 604.494371389 382.896166001
446.515684482 604.438289518 382.896617669
446.591044085 604.390762472 382.897053247
446.667256699 604.359973127 382.897457343
446.743859864 604.336847159 382.897847027
446.821634685 604.336711327 382.898193469
446.899415843 604.33669984 382.898539678
446.977229839 604.337332694 382.898884675
447.055047497 604.338037423 382.899229537
447.13291131 604.339647777 382.899572695
447.210775122 604.341258131 382.899915853
447.288847688 604.346964635 382.900251308
447.36692337 604.352732275 382.900586647
447.446207762 604.38221714 382.900877378
447.525630859 604.414423654 382.90116299
447.606149697 604.468130728 382.901408163
447.686927528 604.526919754 382.901643778
447.768267173 604.596732633 382.901858659
447.849824664 604.670820067 382.9020655
447.931485951 604.746944202 382.90226851
448.013207586 604.824252466 382.902469293
448.10673305 605.133174573 382.90223445
448.210148207 605.636151522 382.901634621
458.991895394 605.049159151 382.950858672
459.044222374 604.549687674 382.952144282
459.108145969 604.277764119 382.953001912
459.181785647 604.196488823 382.953500964
459.255612752 604.118891199 382.9539931
459.32966356 604.045683054 382.954476979
459.40400139 603.978106856 382.954950266
459.478832901 603.920217605 382.955405333
459.553979291 603.8685069 382.95584878
459.629937739 603.832730338 382.956262256
459.706145872 603.801853086 382.956666519
459.783410368 603.791703685 382.957031795
459.860708071 603.782205896 382.957395846
459.938295163 603.778386456 382.957749217
460.015882906 603.774579805 382.958102564
460.093514322 603.771630086 382.958454299
460.171145737 603.768680366 382.958806034
460.248800595 603.766190616 382.959156904
460.326457312 603.763737372 382.959507705
460.404140254 603.761798695 382.959857539
460.481828256 603.759959321 382.960207186
460.559552678 603.758834569 382.960555488
460.63728924 603.757948025 382.960903343
460.715026607 603.757077275 382.961251168
460.792764386 603.756214598 382.961598977
460.87051193 603.755543559 382.961946427
460.948266738 603.75501502 382.962293608
461.026019638 603.754449063 382.96264086
461.103770515 603.753843419 382.962988186
461.181531967 603.753445252 382.963335122
461.259309474 603.753362142 382.963681465
461.337092132 603.753380084 382.964027619
461.414886316 603.753624191 382.964373347
461.492683216 603.753921592 382.964718975
461.570489712 603.754407297 382.965064248
461.64829763 603.754920906 382.965409469
461.726114872 603.755617443 382.965754347
461.803933072 603.756332803 382.966099188
461.881772058 603.757456011 382.966443263
461.959611044 603.758579219 382.966787337
462.037460392 603.75990576 382.96713103
462.115310218 603.761241687 382.967474704
462.193159719 603.762571215 382.967818391
462.27100917 603.763899768 382.968162079
462.348874338 603.765536729 382.968505187
462.426743955 603.767260976 382.968848132
462.504650915 603.769717967 382.969189698
462.58257456 603.772502355 382.969530648
462.660528701 603.775885139 382.969870472
462.738502926 603.779661989 382.970209556
462.816474393 603.783384743 382.970548741
462.894443261 603.787056493 382.970888022
462.972444629 603.791365944 382.971226104
463.050489702 603.796532993 382.971562573
463.128552325 603.802044398 382.971898394
463.206649285 603.808229541 382.972232948
463.284722502 603.813948825 382.972568378
463.362724494 603.818270529 382.972906437
463.440756464 603.823180457 382.97324339
463.518943774 603.831138458 382.973574609
463.597156889 603.839602812 382.973904876
463.675695154 603.854447217 382.974223143
463.754233418 603.869291622 382.974541411
463.833460197 603.897645992 382.974834268
463.912697251 603.926202003 382.975126746
463.992387995 603.963660274 382.975402481
464.072130802 604.002140116 382.975676294
464.17166695 604.429003432 382.975219622
464.275881524 604.947666477 382.974590291
445.412111768 605.535019151 382.811038015
445.464371503 605.034228192 382.812326107
445.538778698 604.968013051 382.812796833
445.614208083 604.921855256 382.813229836
445.690067033 604.884126345 382.813646985
445.76599151 604.847683196 382.814061715
445.841846757 604.80988164 382.814479001
445.917682412 604.771695629 382.81489701
445.993365285 604.730511749 382.815320657
446.068979893 604.687988396 382.815746823
446.144822755 604.6499438 382.816164566
446.220815929 604.614848628 382.816576761
446.296645092 604.576535252 382.81699501
446.372319617 604.535187568 382.817418965
446.447690677 604.487885325 382.81785412
446.52265363 604.432575227 382.818304336
446.598059255 604.385951208 382.818738215
446.674330977 604.356321692 382.81914013
446.750993055 604.33435169 382.819527639
446.828826197 604.335360233 382.81987193
446.906657856 604.336339679 382.820216275
446.984481831 604.337168344 382.820560903
447.062312518 604.338128721 382.820905284
447.140227782 604.340748662 382.821246544
447.218143047 604.343368603 382.821587803
447.296335978 604.351436912 382.821918815
447.374533054 604.35958654 382.822249674
447.453932029 604.391319738 382.822536177
447.533468927 604.425759246 382.822817589
447.614072435 604.481127705 382.823059637
447.694928051 604.541443007 382.823292381
447.776292876 604.611749983 382.823506333
447.857855151 604.685931283 382.823712997
447.939567479 604.763056937 382.823914124
448.021367049 604.841894427 382.824112031
448.11467766 605.146600734 382.823885116
448.217632659 605.640548484 382.82330227
458.998911086 605.044358148 382.872543621
459.050892723 604.538110364 382.873841976
459.114695585 604.2638178 382.874704062
459.188402718 604.183866094 382.875200625
459.262272209 604.107100174 382.875691196
459.336335483 604.034136643 382.876174615
459.410727884 603.96763121 382.876645888
459.485686382 603.912233707 382.877096269
459.560940766 603.862642059 382.877535729
459.636958225 603.8280234 382.877947029
459.713219456 603.798188023 382.878349331
459.790512032 603.788589605 382.878713571
459.867835447 603.779596331 382.879076673
459.945427613 603.775876456 382.879429857
460.023020631 603.772173306 382.879783009
460.100670755 603.769590682 382.880134054
460.178320879 603.767008057 382.880485098
460.255986103 603.764721725 382.880835586
460.333652525 603.762458908 382.881186029
460.411349692 603.760799346 382.881535337
460.489052791 603.759256203 382.881884427
460.566775613 603.758100044 382.882232789
460.644505008 603.757072881 382.882580908
460.722240272 603.756160859 382.88292881
460.799978534 603.755307687 382.883276602
460.877727065 603.754655989 382.883624015
460.95548323 603.754154106 382.883971146
461.033242322 603.753709627 382.884318169
461.111004515 603.753326032 382.884665078
461.188771717 603.753040701 382.885011802
461.266546524 603.752904587 382.885358245
461.344327537 603.75289027 382.885704459
461.422122443 603.75314855 382.886050161
461.499918815 603.753435588 382.886395808
461.577720365 603.75382424 382.886741264
461.655523117 603.754236474 382.887086676
461.733333748 603.754803303 382.887431797
461.811145529 603.755392701 382.887776876
461.88898223 603.756471074 382.888121034
461.966818931 603.757549447 382.888465193
462.044665036 603.758812353 382.888809005
462.122511575 603.760083776 382.889152801
462.200359889 603.761390021 382.889496531
462.278208474 603.762701577 382.889840252
462.356068493 603.764237509 382.89018355
462.433931749 603.765836943 382.890526729
462.511824894 603.768022853 382.890868805
462.589731393 603.770470805 382.891210388
462.667669359 603.773536193 382.89155081
462.745628047 603.777008185 382.891890466
462.823580612 603.780360049 382.892230349
462.901527406 603.783598649 382.892570445
462.979515508 603.787647801 382.892909017
463.057559162 603.792787004 382.893245538
463.135635249 603.798562586 382.893580862
463.213774789 603.805583254 382.893913845
463.291882575 603.811980853 382.894247999
463.369895101 603.816509244 382.894585669
463.447936761 603.821609316 382.894922264
463.526129392 603.829671725 382.895253287
463.604347761 603.838239151 382.89558336
463.682890419 603.853169774 382.895901465
463.761433078 603.868100397 382.89621957
463.840630975 603.895888077 382.896513494
463.919838653 603.923867654 382.896807056
463.999541385 603.961561155 382.897082348
464.079300927 604.00036937 382.897355543
464.178863803 604.427757146 382.896897885
464.283107467 604.946991001 382.89626748
445.419114664 605.529967045 382.732723436
445.471152991 605.024831633 382.734019699
445.545522282 604.957872748 382.734491825
445.620922233 604.911137396 382.734925913
445.696838484 604.874532851 382.735340948
445.772833493 604.839473685 382.735753075
445.848781101 604.803484425 382.736166952
445.924715294 604.767231931 382.736581324
446.00043356 604.726742519 382.737003665
446.076055347 604.684360016 382.737429567
446.151882088 604.645999119 382.737847904
446.2278438 604.610286597 382.738261261
446.303690564 604.572318574 382.738678859
446.379428948 604.532223936 382.739100458
446.45483865 604.485679916 382.739534187
446.529806331 604.430462591 382.739984228
446.605231766 604.384227276 382.740417377
446.681552805 604.35556546 382.740817472
446.758254678 604.334376325 382.741203512
446.836099051 604.335605234 382.741547388
446.913940521 604.336777186 382.741891371
446.991766949 604.337653997 382.742235909
447.069601906 604.338698139 382.742580132
447.147544311 604.341850631 382.74292039
447.225486715 604.345003123 382.743260648
447.30381472 604.355721815 382.743586675
447.382148479 604.366553436 382.74391249
447.461590581 604.399132872 382.7441974
447.54115987 604.43420796 382.744477617
447.621870633 604.49168096 382.744715707
447.702851198 604.554448012 382.74494384
447.784273362 604.625880079 382.745155675
447.865866758 604.70067205 382.745361191
447.947695433 604.780080642 382.745558024
448.029660898 604.862173317 382.745749809
448.122751293 605.162558551 382.745531021
448.225162576 605.645837552 382.744968242
459.005920322 605.039430438 382.794228809
459.057546403 604.526205974 382.795540285
459.121235781 604.249686633 382.796406559
459.195032246 604.171487802 382.796899825
459.268950407 604.095676866 382.7973886
459.343013816 604.022715998 382.797872015
459.417455134 603.957170405 382.798341482
459.492546452 603.904379084 382.798786961
459.567915732 603.857041917 382.799222182
459.644001862 603.823770721 382.799630946
459.720320509 603.795061945 382.80003113
459.797622879 603.785655715 382.800395009
459.874955376 603.776840636 382.800757775
459.952550408 603.77317701 382.801110853
460.030146558 603.769535305 382.80146389
460.107817558 603.767362312 382.801814164
460.185488558 603.765189319 382.802164438
460.263162527 603.763074592 382.802514603
460.340836733 603.760964489 382.802864759
460.418547506 603.759571932 382.803213565
460.496265337 603.758317848 382.803562111
460.573987077 603.757140464 382.803910513
460.65171012 603.755988646 382.804258866
460.729447232 603.75511289 382.804606701
460.807191534 603.754378234 382.804954269
460.884941462 603.753753958 382.805301631
460.962695573 603.753211759 382.805648838
461.040456764 603.752808485 382.805995783
461.118225465 603.752552556 382.806342452
461.196000196 603.752414972 382.806688898
461.273784086 603.752457097 382.807035006
461.351569957 603.752538079 382.807381041
461.429360259 603.752706031 382.807726912
461.507151994 603.752902076 382.80807273
461.584948787 603.753197385 382.808418362
461.662746519 603.753511119 382.808763959
461.740550407 603.753945638 382.809109329
461.818355668 603.754407114 382.809454648
461.896190697 603.755452673 382.809798869
461.974025725 603.756498232 382.81014309
462.051870509 603.757735212 382.81048695
462.129715743 603.758981026 382.810830794
462.207557038 603.760149544 382.811174784
462.285397732 603.761306271 382.811518795
462.363245538 603.762602548 382.811862544
462.441095357 603.763938319 382.812206219
462.518967961 603.765721177 382.812549053
462.596850745 603.767703795 382.812891511
462.674764218 603.770288585 382.813232837
462.7526979 603.773269927 382.813573417
462.830624851 603.77611918 382.813914245
462.908545455 603.778843893 382.814255307
462.986517476 603.782577503 382.814594472
463.064558643 603.787667907 382.814931085
463.142652757 603.79379722 382.815265744
463.220850462 603.80195918 382.81559658
463.29900833 603.809339479 382.815928886
463.37704669 603.814374794 382.816265603
463.455109941 603.819898525 382.816601401
463.533302175 603.827953135 382.816932438
463.611520243 603.836514661 382.817262523
463.690063821 603.851463329 382.817580594
463.768607399 603.866411997 382.817898665
463.847779176 603.893687133 382.818193552
463.926960329 603.921146246 382.818488093
464.006703626 603.95963572 382.818761888
464.086511432 603.999390972 382.819033303
464.186089089 604.427068778 382.818575099
464.29033962 604.946437368 382.817944441
445.426158955 605.525727202 382.65440733
445.47801552 605.017025277 382.655710301
445.552381946 604.950010161 382.656182532
445.627787288 604.90338059 382.656616422
445.70377997 604.868275763 382.657028635
445.779862246 604.834928947 382.657437542
445.855881336 604.800342307 382.657848781
445.931882544 604.765404774 382.65826068
446.007636516 604.725615998 382.658681703
446.083280021 604.683659646 382.659106803
446.159066265 604.644504089 382.659526635
446.234946506 604.607192958 382.659942999
446.310756191 604.568497374 382.660361966
446.386499351 604.528496449 382.660783388
446.461938059 604.482521591 382.661216046
446.536967332 604.428512821 382.661663815
446.612437515 604.383155556 382.662095311
446.688770348 604.354725148 382.662494971
446.76548147 604.333717488 382.66288067
446.843327457 604.334978073 382.663224487
446.921173036 604.336230656 382.663568318
446.999016502 604.337441775 382.663912227
447.076869252 604.338835067 382.664255794
447.154838982 604.342523722 382.664595043
447.232808711 604.346212378 382.664934293
447.311161923 604.357425699 382.665259389
447.389520859 604.368751328 382.665584275
447.469046073 604.402961583 382.665866118
447.548705122 604.439797942 382.666143023
447.629563535 604.500168124 382.666375663
447.710705434 604.566100845 382.666597842
447.792257804 604.640087805 382.666804872
447.873969336 604.717197837 382.667006028
447.959770431 604.874552947 382.667056257
448.047949177 605.078562172 382.667018737
448.140253723 605.363527543 382.666828951
448.236015021 605.716321035 382.666511593
459.01296472 605.035192702 382.715912698
459.064290853 604.51608268 382.717235245
459.127837281 604.236758368 382.718106794
459.201622333 604.158335596 382.718600482
459.275557168 604.08285185 382.719088641
459.349670777 604.010875974 382.719570203
459.424175875 603.946581886 382.720037317
459.499354336 603.895500475 382.720479579
459.574815144 603.849959258 382.720911422
459.651004111 603.818705913 382.721316391
459.727406297 603.79163635 382.721713492
459.804710567 603.782267407 382.722077301
459.882046573 603.773521178 382.722439938
459.959659132 603.770201464 382.722792369
460.037272719 603.76690192 382.723144762
460.11495518 603.764953804 382.723494613
460.192637641 603.763005688 382.723844464
460.270322835 603.761111207 382.724194215
460.348008246 603.759220983 382.724543957
460.425724993 603.757945637 382.724892543
460.503447788 603.756788951 382.725240906
460.581176722 603.75575273 382.725589042
460.658907702 603.754756665 382.725937103
460.736650699 603.753996386 382.72628472
460.814399837 603.75335662 382.72663211
460.892152464 603.752785288 382.726979372
460.969907683 603.752264843 382.727326538
461.047672357 603.751929908 382.727673355
461.125447058 603.751791725 382.728019802
461.203227559 603.751767354 382.728366035
461.281016868 603.751915807 382.728711943
461.358805632 603.752053571 382.729057871
461.436593177 603.752167413 382.729403844
461.514381947 603.752305289 382.729749772
461.592175045 603.75252809 382.73009554
461.66996944 603.75277634 382.73044126
461.747772337 603.753191416 382.730786667
461.82557639 603.75362918 382.731132031
461.903405495 603.754558499 382.73147647
461.981234599 603.755487818 382.731820909
462.059076517 603.756668562 382.732164876
462.136919027 603.757860909 382.73250882
462.214758165 603.758987116 382.732852889
462.29259679 603.760103234 382.733196977
462.370439252 603.761294669 382.733540923
462.448282802 603.76250742 382.73388483
462.526145155 603.764089143 382.734228042
462.60401591 603.765835725 382.734570944
462.681910288 603.768045834 382.734912974
462.759820222 603.770561191 382.73525443
462.83772971 603.77306779 382.735595903
462.915638777 603.775566132 382.735937391
462.993595322 603.77899607 382.736277127
463.071615715 603.783678841 382.736614507
463.149706735 603.78974744 382.73694928
463.227935937 603.79852744 382.737278954
463.306123962 603.806499467 382.737610147
463.384188455 603.812047577 382.737945899
463.462275629 603.818040713 382.738280814
463.540480326 603.826339886 382.738611392
463.618709121 603.835111894 382.73894108
463.697241541 603.849841615 382.739259563
463.775773961 603.864571335 382.739578046
463.854946721 603.891865767 382.739872897
463.934129038 603.919347731 382.740167395
464.013884389 603.958073712 382.740440745
464.093705498 603.998089989 382.740711669
464.193300208 604.426102417 382.740252836
464.297568679 604.945823025 382.739621515
445.433238019 605.522169658 382.57608994
445.484946125 605.010554692 382.57739839
445.559339117 604.944060855 382.577869641
445.634779103 604.89811107 382.578302252
445.710864284 604.864821254 382.578711052
445.787047885 604.833462618 382.579116219
445.86312092 604.799934472 382.579525467
445.939162663 604.765792312 382.57993587
446.014952606 604.726709353 382.580355566
446.090630042 604.685418803 382.580779414
446.166355308 604.645066764 382.581201496
446.242112072 604.605332767 382.581622416
446.317838747 604.565008375 382.582044447
446.393537053 604.524127325 382.582467525
446.468996675 604.478562815 382.582899411
446.544135305 604.426699858 382.583343144
446.619671185 604.382631694 382.583772216
446.695984292 604.353814208 382.584172604
446.772679002 604.332484534 382.584558909
446.850518526 604.333618295 382.584902963
446.928363425 604.334857534 382.58524682
447.006236179 604.336643338 382.585589648
447.084118084 604.338608705 382.585932139
447.162115293 604.342836558 382.586270374
447.240112502 604.34706441 382.586608609
447.318398636 604.356961526 382.586936182
447.396689082 604.366943258 382.587263595
447.476330995 604.403443377 382.587541131
447.556127995 604.44298659 382.587812944
447.63716799 604.506919771 382.588038884
447.718501784 604.576617853 382.588253981
447.800245569 604.65436074 382.588453946
447.88214833 604.735223041 382.588648045
447.975160945 605.034082077 382.588432128
448.074632777 605.4596834 382.58797783
448.165676344 605.719905921 382.587834582
459.020038656 605.031534545 382.637595498
459.071111551 604.507455508 382.63892739
459.134490276 604.224840538 382.639805129
459.208179289 604.144533301 382.640302361
459.282103924 604.068849399 382.640790897
459.356309783 603.998683671 382.641269054
459.430891149 603.935886089 382.641733353
459.506118384 603.885761717 382.642173815
459.58165109 603.841631286 382.642603005
459.657971592 603.812958918 382.64300312
459.734479263 603.787959163 382.643396327
459.811778802 603.778497388 382.64376031
459.889113636 603.76972816 382.644122991
459.966756036 603.766993993 382.644474321
460.044399079 603.764272411 382.644825627
460.122085091 603.762393978 382.645175347
460.199771102 603.760515545 382.645525067
460.277469603 603.75888217 382.645874326
460.355169095 603.757268243 382.646223549
460.432885404 603.755984282 382.646572151
460.510604957 603.754763997 382.646920633
460.588348037 603.754005348 382.647268248
460.666098959 603.753400578 382.647615572
460.743851232 603.752822311 382.647962847
460.821604195 603.75225759 382.648310096
460.899360612 603.751760642 382.648657218
460.977119598 603.751314088 382.649004245
461.054888916 603.751070284 382.649350891
461.132669193 603.751041516 382.649697132
461.210453985 603.751101349 382.650043207
461.288245635 603.751295726 382.650389028
461.366035644 603.751457916 382.650734911
461.443821982 603.751548072 382.651080928
461.521609192 603.751655353 382.651426914
461.599399487 603.751823146 382.651772785
461.677191958 603.752033643 382.652118576
461.754998696 603.752524089 382.652463841
461.832806002 603.753025676 382.652809085
461.910625611 603.753768676 382.653153875
461.98844522 603.754511676 382.653498664
462.066282974 603.755610725 382.653842784
462.144121566 603.756726206 382.654186873
462.221962633 603.75789025 382.654530871
462.299804078 603.759061702 382.654874855
462.377646969 603.760261538 382.655218786
462.455490269 603.761469409 382.655562701
462.533351016 603.763019609 382.655905972
462.611219558 603.764722765 382.656248956
462.689099375 603.766647161 382.656591524
462.766986617 603.768717253 382.656933818
462.84488549 603.771015562 382.657275682
462.922795329 603.773529049 382.657617142
463.000736905 603.776665282 382.65795743
463.078721163 603.780639 382.658296144
463.156791346 603.786298751 382.658631686
463.235029645 603.795257259 382.658961023
463.313231089 603.803492599 382.659291721
463.391321968 603.809558437 382.6596265
463.469435023 603.816059403 382.659960459
463.547662987 603.824815125 382.660290179
463.625911772 603.833979374 382.660619129
463.704422888 603.848291073 382.660938399
463.782934004 603.862602773 382.661257668
463.862130515 603.890363245 382.661551642
463.941337256 603.918324445 382.661845239
464.02108071 603.956816983 382.662119028
464.100885754 603.996518035 382.662390544
464.200499427 604.424902542 382.661931012
464.304795139 604.945157684 382.661298686
445.440344598 605.519152033 382.497771535
445.4919306 605.005141131 382.499084491
445.566334814 604.9388675 382.499555328
445.641792176 604.893258665 382.499987298
445.717958187 604.861554894 382.500393114
445.794232298 604.831972235 382.500794941
445.870357103 604.799459921 382.501202279
445.946439652 604.76611846 382.501611176
446.022230988 604.727062823 382.50203082
446.097892206 604.685454045 382.502455266
446.173534159 604.643467242 382.502880424
446.249163425 604.601231496 382.503306049
446.324797674 604.559093518 382.503731491
446.400436621 604.517047722 382.504156759
446.475908912 604.47173182 382.504588178
446.55115708 604.422018191 382.505027868
446.6267862 604.379779591 382.505453499
446.703160664 604.352166048 382.505851623
446.779900371 604.331719288 382.506236267
446.857735808 604.332772877 382.506580472
446.935579994 604.333998116 382.506924355
447.01346951 604.336112819 382.507266565
447.091368425 604.338411963 382.507608428
447.169385778 604.343035079 382.50794592
447.247403131 604.347658194 382.508283412
447.325681712 604.357407115 382.508611263
447.403964193 604.367232541 382.50893897
447.483740302 604.406365838 382.509211554
447.563687811 604.448862333 382.509477812
447.644903148 604.516236072 382.509697281
447.726418155 604.589489885 382.50990569
447.808309824 604.670134538 382.510100198
447.890347545 604.753645026 382.510289315
447.987150667 605.126881111 382.509933508
448.092538324 605.66856231 382.509260883
459.02708852 605.027404052 382.559279186
459.07787011 604.497609049 382.560621829
459.141088836 604.2118546 382.561505472
459.214727865 604.130566561 382.562004549
459.288643599 604.054708019 382.562493413
459.362889595 603.985329844 382.562970089
459.437528946 603.923670051 382.563432248
459.512844867 603.875285878 382.563869438
459.588468331 603.832936273 382.564295278
459.664884929 603.806149503 382.564691846
459.741478721 603.782839611 382.565081875
459.818822178 603.77423959 382.565444238
459.896198127 603.766277122 382.565805401
459.97385722 603.763870483 382.566156115
460.051516848 603.761474354 382.566506809
460.129212365 603.759782422 382.566856178
460.206907881 603.758090489 382.567205547
460.28461908 603.756706267 382.567554338
460.362331523 603.755346465 382.567903083
460.440052526 603.754154617 382.568251512
460.51777518 603.75299518 382.568599879
460.595528121 603.752430021 382.56894713
460.673291157 603.752062955 382.569294007
460.751049782 603.751609331 382.569641048
460.828806153 603.751111467 382.569988171
460.906566248 603.750686691 382.570335157
460.984329113 603.750316263 382.570682041
461.062102019 603.750142856 382.571028554
461.139885574 603.750178411 382.571374675
461.217672044 603.750271155 382.571720687
461.295462939 603.750450739 382.572066537
461.373253677 603.750627228 382.572412392
461.451044062 603.750796788 382.57275826
461.528833763 603.750952932 382.573104154
461.606621048 603.751061672 382.573450136
461.684411229 603.751227252 382.573796012
461.762220401 603.75176545 382.574141187
461.840029851 603.752309101 382.574486352
461.91784532 603.752970881 382.574831294
461.99566079 603.75363266 382.575176237
462.073494926 603.754660696 382.57552049
462.151329923 603.755705636 382.575864712
462.229170363 603.756857382 382.576208733
462.307011633 603.758025421 382.576552723
462.384854073 603.759216396 382.57689667
462.462696843 603.760413862 382.577240605
462.540556079 603.761934432 382.577583933
462.618422674 603.763599369 382.577926988
462.696292466 603.765327055 382.578269926
462.774164363 603.767096063 382.578612786
462.852051758 603.769169149 382.578955074
462.929953764 603.771528936 382.579296823
463.007875398 603.77427385 382.579637847
463.085823427 603.777536695 382.579977898
463.163870216 603.782737421 382.580314303
463.242110235 603.791729655 382.580643577
463.320315461 603.800039216 382.580974136
463.398416314 603.806300758 382.581308546
463.476545715 603.813122479 382.581641902
463.55482305 603.822846946 382.5819698
463.63311595 603.832876818 382.582297122
463.711604962 603.846754799 382.582617207
463.790093975 603.860632779 382.582937292
463.869305255 603.888683049 382.583230721
463.948527315 603.916944846 382.583523753
464.028263889 603.955302395 382.583797796
464.108059506 603.994818473 382.58406966
464.207695438 604.423639742 382.583609306
464.312020899 604.944478601 382.582975882
445.447483935 605.51677717 382.419451921
445.498979205 605.000985933 382.420768225
445.573376375 604.934574086 382.421239322
445.648830556 604.888902826 382.421671409
445.725063506 604.858512523 382.422074756
445.801415251 604.830453214 382.422473718
445.877589239 604.798905948 382.42287924
445.953712917 604.766371525 382.423286619
446.02946448 604.726535479 382.423707731
446.105049779 604.683437005 382.424134979
446.180581828 604.639293676 382.424564193
446.256078811 604.594462271 382.4249947
446.331609422 604.550290734 382.425423967
446.407171742 604.506741357 382.425852063
446.48264689 604.461481518 382.426283376
446.558004808 604.4139214 382.426719016
446.63375996 604.374155775 382.427139996
446.710292308 604.349640246 382.427532293
446.787150115 604.331510837 382.427912578
446.864984298 604.332539791 382.42825683
446.94282773 604.333750252 382.428600741
447.020719095 604.335901249 382.428942882
447.098620564 604.338250485 382.429284651
447.176649328 604.343097512 382.429621721
